ncols         197
nrows         89
xllcorner     33.94999
yllcorner     -0.02499996
cellsize      8.333334E-03
NODATA_value  -9999
-9999 -9999 -9999 -9999 -9999 -9999 -9999 -9999 -9999 -9999 -9999 -9999 -9999 -9999 -9999 -9999 -9999 -9999 -9999 -9999 -9999 -9999 -9999 -9999 -9999 -9999 -9999 -9999 -9999 -9999 -9999 -9999 -9999 -9999 -9999 -9999 -9999 -9999 -9999 -9999 -9999 -9999 -9999 -9999 -9999 -9999 -9999 -9999 -9999 -9999 -9999 -9999 -9999 -9999 -9999 -9999 -9999 -9999 -9999 -9999 -9999 -9999 -9999 -9999 -9999 -9999 -9999 -9999 -9999 -9999 -9999 -9999 -9999 -9999 -9999 1593 1574 1554 1563 1569 1562 1561 1562 1545 1537 1542 1512 1495 1499 1516 1544 1600 1626 1618 1616 1638 1672 1662 1670 1675 1673 1666 1646 1638 1622 1589 1599 1615 1634 1661 1689 1676 1674 1668 1671 1682 1648 1619 1650 1663 1711 1780 1828 1843 1820 1808 1772 1753 1725 1736 1793 1852 1876 1897 1881 1885 1893 1902 1906 1918 1920 1910 1922 1924 1943 1961 1954 1960 1967 1977 1994 2003 2004 2006 2009 2017 2025 2032 2042 2050 2056 2067 2079 2091 2103 2111 2115 2119 2130 2140 2148 2159 2166 2173 2157 2152 2157 2170 2187 2230 2272 2246 2241 2267 2296 2284 2276 2299 2332 2380 -9999 -9999 -9999 -9999 -9999 -9999 -9999
-9999 -9999 -9999 -9999 -9999 -9999 -9999 -9999 -9999 -9999 -9999 -9999 -9999 -9999 -9999 -9999 -9999 -9999 -9999 -9999 -9999 -9999 -9999 -9999 -9999 -9999 -9999 -9999 -9999 -9999 -9999 -9999 -9999 -9999 -9999 -9999 -9999 -9999 -9999 -9999 -9999 -9999 -9999 -9999 -9999 -9999 -9999 -9999 -9999 -9999 -9999 -9999 -9999 -9999 -9999 -9999 -9999 -9999 -9999 -9999 -9999 -9999 -9999 -9999 -9999 -9999 -9999 -9999 -9999 -9999 -9999 -9999 -9999 -9999 -9999 1577 1571 1553 1541 1553 1553 1547 1547 1548 1526 1539 1535 1517 1494 1487 1508 1538 1598 1640 1629 1652 1673 1667 1648 1644 1664 1657 1631 1612 1599 1582 1599 1619 1638 1661 1672 1658 1652 1639 1652 1664 1637 1613 1640 1670 1722 1773 1829 1848 1837 1843 1849 1848 1808 1756 1816 1869 1887 1889 1888 1890 1906 1911 1911 1919 1937 1926 1929 1951 1951 1954 1954 1966 1971 1978 1987 2002 2006 2003 2002 2011 2020 2026 2036 2047 2058 2075 2083 2092 2104 2111 2120 2127 2133 2139 2149 2160 2169 2173 2159 2150 2160 2177 2191 2210 2238 2236 2271 2285 2303 2302 2276 2309 2338 -9999 -9999 -9999 -9999 -9999 -9999 -9999 -9999
-9999 -9999 -9999 -9999 -9999 -9999 -9999 -9999 -9999 -9999 -9999 -9999 -9999 -9999 -9999 -9999 -9999 -9999 -9999 -9999 -9999 -9999 -9999 -9999 -9999 -9999 -9999 -9999 -9999 -9999 -9999 -9999 -9999 -9999 -9999 -9999 -9999 -9999 -9999 -9999 -9999 -9999 -9999 -9999 -9999 -9999 -9999 -9999 -9999 -9999 -9999 -9999 -9999 -9999 -9999 -9999 -9999 -9999 -9999 -9999 -9999 -9999 -9999 -9999 -9999 -9999 -9999 -9999 -9999 -9999 -9999 -9999 -9999 -9999 1553 1572 1574 1548 1547 1537 1559 1544 1532 1539 1533 1518 1536 1532 1507 1488 1485 1507 1538 1597 1656 1661 1651 1654 1656 1632 1652 1661 1652 1627 1593 1578 1607 1623 1643 1647 1644 1646 1627 1623 1641 1624 1611 1628 1644 1666 1696 1757 1815 1841 1846 1854 1863 1869 1863 1852 1843 1872 1882 1880 1894 1896 1910 1923 1927 1917 1930 1941 1945 1958 1963 1949 1950 1968 1975 1985 1990 1989 1993 1995 2001 2010 2017 2025 2039 2051 2060 2075 2084 2091 2098 2109 2119 2128 2135 2140 2154 2162 2168 2169 2156 2148 2164 2183 2204 2222 2240 2243 2270 2291 2312 2297 2279 2292 -9999 -9999 -9999 -9999 -9999 -9999 -9999 -9999 -9999
-9999 -9999 -9999 -9999 -9999 -9999 -9999 -9999 -9999 -9999 -9999 -9999 -9999 -9999 -9999 -9999 -9999 -9999 -9999 -9999 -9999 -9999 -9999 -9999 -9999 -9999 -9999 -9999 -9999 -9999 -9999 -9999 -9999 -9999 -9999 -9999 -9999 -9999 -9999 -9999 -9999 -9999 -9999 -9999 -9999 -9999 -9999 -9999 -9999 -9999 -9999 -9999 -9999 -9999 -9999 -9999 -9999 -9999 -9999 -9999 -9999 -9999 -9999 -9999 -9999 -9999 -9999 -9999 -9999 -9999 -9999 -9999 1564 1541 1561 1576 1557 1537 1545 1531 1546 1552 1529 1523 1537 1510 1508 1527 1523 1503 1484 1477 1494 1543 1623 1670 1649 1632 1645 1632 1628 1644 1651 1628 1594 1574 1607 1624 1618 1604 1618 1616 1606 1609 1612 1608 1634 1656 1676 1703 1738 1814 1831 1849 1842 1851 1862 1854 1860 1873 1870 1878 1874 1880 1897 1910 1916 1926 1935 1921 1925 1945 1952 1960 1960 1943 1954 1960 1969 1977 1981 1977 1989 2003 2008 2014 2027 2038 2045 2053 2058 2066 2074 2086 2096 2108 2120 2128 2140 2147 2155 2165 2173 2180 2162 2155 2183 2186 2202 2236 2252 2259 2267 2286 2312 2301 2311 2324 -9999 -9999 -9999 -9999 -9999 -9999 -9999 -9999 -9999
-9999 -9999 -9999 -9999 -9999 -9999 -9999 -9999 -9999 -9999 -9999 -9999 -9999 -9999 -9999 -9999 -9999 -9999 -9999 -9999 -9999 -9999 -9999 -9999 -9999 -9999 -9999 -9999 -9999 -9999 -9999 -9999 -9999 -9999 -9999 -9999 -9999 -9999 -9999 -9999 -9999 -9999 -9999 -9999 -9999 -9999 -9999 -9999 -9999 -9999 -9999 -9999 -9999 -9999 -9999 -9999 -9999 -9999 -9999 -9999 -9999 -9999 -9999 -9999 -9999 -9999 -9999 -9999 -9999 -9999 1549 1561 1544 1534 1565 1584 1562 1540 1532 1536 1525 1551 1544 1517 1530 1517 1496 1518 1515 1508 1500 1476 1494 1522 1582 1661 1665 1632 1623 1628 1615 1618 1636 1628 1594 1568 1587 1589 1594 1576 1597 1608 1626 1638 1624 1623 1643 1666 1694 1731 1790 1818 1806 1831 1815 1827 1842 1845 1860 1870 1879 1874 1881 1882 1901 1909 1916 1911 1916 1917 1925 1943 1948 1953 1949 1939 1944 1953 1960 1959 1967 1980 1988 2003 2003 2010 2020 2031 2047 2048 2052 2054 2071 2088 2098 2106 2114 2126 2135 2144 2156 2167 2179 2187 2168 2192 2202 2193 2204 2217 2256 2270 2282 2290 2316 2316 -9999 -9999 -9999 -9999 -9999 -9999 -9999 -9999 -9999 -9999 -9999
-9999 -9999 -9999 -9999 -9999 -9999 -9999 -9999 -9999 -9999 -9999 -9999 -9999 -9999 -9999 -9999 -9999 -9999 -9999 -9999 -9999 -9999 -9999 -9999 -9999 -9999 -9999 -9999 -9999 -9999 -9999 -9999 -9999 -9999 -9999 -9999 -9999 -9999 -9999 -9999 -9999 -9999 -9999 -9999 -9999 -9999 -9999 -9999 -9999 -9999 -9999 -9999 -9999 -9999 -9999 -9999 -9999 -9999 -9999 -9999 -9999 -9999 -9999 -9999 -9999 -9999 -9999 -9999 -9999 1519 1534 1526 1521 1540 1570 1582 1553 1532 1519 1527 1512 1535 1540 1515 1517 1501 1486 1507 1505 1490 1487 1469 1483 1504 1544 1638 1665 1640 1614 1609 1611 1599 1626 1640 1604 1563 1559 1557 1558 1565 1586 1605 1638 1651 1657 1658 1652 1684 1723 1736 1769 1768 1755 1755 1773 1818 1845 1841 1857 1873 1893 1896 1876 1884 1895 1900 1909 1907 1912 1916 1926 1932 1933 1942 1939 1913 1929 1941 1950 1952 1967 1975 1982 1993 2004 2019 2031 2032 2038 2043 2045 2051 2065 2080 2085 2094 2108 2125 2137 2151 2157 2172 2187 2197 2201 2205 2218 2208 2219 2227 2266 2283 2287 2303 2322 2322 -9999 -9999 -9999 -9999 -9999 -9999 -9999 -9999 -9999 -9999 -9999
-9999 -9999 -9999 -9999 -9999 -9999 -9999 -9999 -9999 -9999 -9999 -9999 -9999 -9999 -9999 -9999 -9999 -9999 -9999 -9999 -9999 -9999 -9999 -9999 -9999 -9999 -9999 -9999 -9999 -9999 -9999 -9999 -9999 -9999 -9999 -9999 -9999 -9999 -9999 -9999 -9999 -9999 -9999 -9999 -9999 -9999 -9999 -9999 -9999 -9999 -9999 -9999 -9999 -9999 -9999 -9999 -9999 -9999 -9999 -9999 -9999 -9999 -9999 -9999 -9999 -9999 -9999 -9999 1501 1494 1498 1514 1532 1565 1573 1570 1569 1553 1540 1513 1505 1533 1534 1517 1507 1496 1479 1492 1504 1495 1471 1463 1484 1519 1547 1604 1681 1658 1623 1613 1593 1588 1609 1634 1620 1593 1559 1550 1581 1597 1620 1633 1641 1673 1678 1682 1672 1681 1697 1720 1729 1718 1739 1771 1796 1826 1857 1830 1849 1877 1892 1890 1885 1891 1882 1898 1903 1908 1897 1901 1921 1926 1920 1910 1907 1919 1951 1964 1966 1958 1973 1982 1989 1993 2009 2018 2031 2048 2046 2041 2050 2060 2073 2080 2091 2094 2106 2122 2139 2155 2165 2173 2188 2205 2213 2223 2226 2217 2217 2236 2271 2292 2298 2324 2348 2360 -9999 -9999 -9999 -9999 -9999 -9999 -9999 -9999 -9999 -9999 -9999
-9999 -9999 -9999 -9999 -9999 -9999 -9999 -9999 -9999 -9999 -9999 -9999 -9999 -9999 -9999 -9999 -9999 -9999 -9999 -9999 -9999 -9999 -9999 -9999 -9999 -9999 -9999 -9999 -9999 -9999 -9999 -9999 -9999 -9999 -9999 -9999 -9999 -9999 -9999 -9999 -9999 -9999 -9999 -9999 -9999 -9999 -9999 -9999 -9999 -9999 -9999 -9999 -9999 -9999 -9999 -9999 -9999 -9999 -9999 -9999 -9999 -9999 -9999 -9999 -9999 -9999 -9999 -9999 1512 1482 1511 1558 1575 1574 1546 1538 1567 1570 1554 1527 1501 1507 1524 1508 1503 1501 1471 1478 1502 1492 1471 1461 1477 1498 1512 1569 1657 1670 1635 1626 1603 1581 1598 1622 1618 1580 1545 1552 1575 1581 1599 1616 1610 1630 1632 1657 1676 1667 1668 1673 1673 1701 1752 1820 1831 1845 1855 1818 1838 1865 1880 1886 1892 1889 1859 1884 1905 1909 1886 1878 1903 1891 1898 1930 1932 1930 1959 1968 1974 1976 1983 1989 1997 1998 2003 2022 2032 2045 2046 2043 2052 2065 2083 2099 2103 2103 2109 2123 2138 2158 2168 2185 2194 2206 2218 2231 2229 2215 2231 2253 2276 2284 2308 2331 2353 2376 -9999 -9999 -9999 -9999 -9999 -9999 -9999 -9999 -9999 -9999 -9999
-9999 -9999 -9999 -9999 -9999 -9999 -9999 -9999 -9999 -9999 -9999 -9999 -9999 -9999 -9999 -9999 -9999 -9999 -9999 -9999 -9999 -9999 -9999 -9999 -9999 -9999 -9999 -9999 -9999 -9999 -9999 -9999 -9999 -9999 -9999 -9999 -9999 -9999 -9999 -9999 -9999 -9999 -9999 -9999 -9999 -9999 -9999 -9999 -9999 -9999 -9999 -9999 -9999 -9999 -9999 -9999 -9999 -9999 -9999 1362 1366 1399 1429 -9999 -9999 -9999 -9999 1512 1519 1495 1478 1542 1626 1595 1562 1526 1530 1542 1528 1531 1521 1493 1517 1502 1502 1499 1468 1467 1488 1490 1468 1457 1464 1474 1496 1525 1597 1667 1652 1620 1612 1583 1588 1604 1607 1562 1542 1570 1573 1598 1586 1598 1593 1591 1598 1611 1628 1628 1655 1663 1675 1704 1755 1804 1833 1836 1825 1807 1825 1858 1861 1864 1893 1870 1838 1871 1894 1890 1843 1861 1873 1926 1939 1949 1949 1953 1961 1970 1979 1985 1994 1999 2009 2012 2007 2019 2036 2048 2049 2044 2052 2063 2083 2102 2109 2109 2116 2128 2138 2155 2172 2180 2222 2266 2219 2235 2228 2229 2240 2259 2279 2302 2309 2335 2348 2358 -9999 -9999 -9999 -9999 -9999 -9999 -9999 -9999 -9999 -9999 -9999
-9999 -9999 -9999 -9999 -9999 -9999 -9999 -9999 -9999 -9999 -9999 -9999 -9999 -9999 -9999 -9999 -9999 -9999 -9999 -9999 -9999 -9999 -9999 -9999 -9999 -9999 -9999 -9999 -9999 -9999 -9999 -9999 -9999 -9999 -9999 -9999 -9999 -9999 -9999 -9999 -9999 -9999 -9999 -9999 -9999 -9999 -9999 -9999 -9999 -9999 -9999 -9999 -9999 -9999 -9999 -9999 -9999 1345 1349 1341 1357 1392 1432 1457 1466 1487 1478 1465 1506 1510 1473 1490 1544 1581 1589 1540 1502 1524 1503 1521 1517 1487 1507 1495 1496 1501 1473 1456 1474 1484 1468 1455 1459 1471 1489 1514 1559 1658 1648 1613 1592 1578 1567 1582 1586 1564 1538 1584 1608 1626 1619 1644 1635 1627 1633 1634 1636 1620 1672 1702 1721 1723 1742 1772 1796 1806 1798 1818 1835 1824 1819 1833 1860 1836 1828 1872 1878 1835 1869 1865 1889 1932 1947 1953 1956 1965 1970 1968 1979 1992 2002 2010 2024 2021 2019 2024 2031 2039 2044 2043 2052 2067 2091 2110 2116 2115 2114 2126 2142 2153 2172 2180 2207 2256 2226 2236 2239 2228 2242 2261 2286 2301 2314 2327 2335 -9999 -9999 -9999 -9999 -9999 -9999 -9999 -9999 -9999 -9999 -9999 -9999
-9999 -9999 -9999 -9999 -9999 -9999 -9999 -9999 -9999 -9999 -9999 -9999 -9999 -9999 -9999 -9999 -9999 -9999 -9999 -9999 -9999 -9999 -9999 -9999 -9999 -9999 -9999 -9999 -9999 -9999 -9999 -9999 -9999 -9999 -9999 -9999 -9999 -9999 -9999 -9999 -9999 -9999 -9999 -9999 -9999 -9999 -9999 -9999 -9999 -9999 -9999 -9999 -9999 -9999 -9999 -9999 -9999 1326 1334 1328 1357 1380 1425 1434 1448 1444 1422 1442 1504 1496 1470 1464 1499 1519 1529 1526 1490 1499 1490 1522 1513 1481 1497 1491 1490 1499 1480 1456 1463 1472 1452 1453 1458 1472 1489 1509 1538 1651 1670 1625 1601 1592 1564 1571 1560 1553 1533 1557 1572 1618 1658 1663 1677 1659 1664 1679 1691 1658 1640 1683 1712 1723 1754 1747 1758 1782 1819 1833 1855 1820 1786 1807 1812 1815 1817 1827 1836 1844 1886 1918 1922 1931 1936 1947 1959 1967 1975 1978 1977 1985 1995 2012 2024 2030 2032 2033 2035 2035 2042 2050 2057 2073 2104 2118 2119 2117 2122 2130 2147 2158 2169 2184 2206 2256 2242 2248 2250 2244 2234 2242 2257 2274 2292 2305 -9999 -9999 -9999 -9999 -9999 -9999 -9999 -9999 -9999 -9999 -9999 -9999 -9999
-9999 -9999 -9999 -9999 -9999 -9999 -9999 -9999 -9999 -9999 -9999 -9999 -9999 -9999 -9999 -9999 -9999 -9999 -9999 -9999 -9999 -9999 -9999 -9999 -9999 -9999 -9999 -9999 -9999 -9999 -9999 -9999 -9999 -9999 -9999 -9999 -9999 -9999 -9999 -9999 -9999 -9999 -9999 -9999 -9999 -9999 -9999 -9999 -9999 -9999 -9999 -9999 -9999 -9999 -9999 -9999 1308 1313 1326 1318 1337 1357 1396 1395 1430 1410 1393 1464 1499 1514 1489 1456 1500 1494 1482 1499 1473 1469 1490 1520 1506 1479 1488 1480 1490 1488 1471 1454 1456 1461 1447 1450 1454 1463 1479 1492 1514 1573 1656 1624 1588 1568 1549 1550 1536 1526 1557 1579 1593 1591 1630 1683 1712 1691 1703 1693 1708 1725 1680 1652 1657 1682 1698 1721 1757 1790 1825 1799 1832 1807 1791 1832 1823 1833 1848 1851 1867 1897 1911 1926 1937 1939 1940 1949 1958 1967 1975 1984 1989 1986 1991 2008 2024 2034 2041 2041 2036 2040 2041 2064 2085 2102 2116 2122 2116 2124 2132 2131 2145 2157 2171 2182 2199 2249 2249 2249 2252 2255 2247 2243 2274 2289 2303 2319 -9999 -9999 -9999 -9999 -9999 -9999 -9999 -9999 -9999 -9999 -9999 -9999 -9999
-9999 -9999 -9999 -9999 -9999 -9999 -9999 -9999 -9999 -9999 -9999 -9999 -9999 -9999 -9999 -9999 -9999 -9999 -9999 -9999 -9999 -9999 -9999 -9999 -9999 -9999 -9999 -9999 -9999 -9999 -9999 -9999 -9999 -9999 -9999 -9999 -9999 -9999 -9999 -9999 -9999 -9999 -9999 -9999 -9999 -9999 -9999 -9999 -9999 -9999 -9999 -9999 -9999 -9999 -9999 1303 1299 1313 1315 1311 1320 1329 1337 1350 1376 1389 1373 1438 1481 1497 1499 1462 1446 1469 1464 1469 1467 1453 1483 1496 1509 1488 1469 1472 1491 1484 1462 1446 1445 1445 1446 1456 1466 1467 1470 1485 1513 1531 1570 1649 1584 1562 1536 1523 1532 1544 1569 1605 1625 1621 1614 1658 1709 1714 1730 1724 1721 1737 1747 1709 1669 1658 1689 1733 1774 1795 1805 1760 1775 1781 1802 1836 1843 1818 1835 1845 1869 1892 1907 1930 1936 1947 1954 1954 1954 1962 1970 1979 1991 2000 2002 2011 2022 2026 2042 2048 2049 2047 2047 2090 2106 2120 2123 2126 2120 2130 2137 2142 2150 2162 2173 2189 2203 2230 2235 2234 2244 2254 2260 2272 2287 2295 2314 2335 -9999 -9999 -9999 -9999 -9999 -9999 -9999 -9999 -9999 -9999 -9999 -9999 -9999
-9999 -9999 -9999 -9999 -9999 -9999 -9999 -9999 -9999 -9999 -9999 -9999 -9999 -9999 -9999 -9999 -9999 -9999 -9999 -9999 -9999 -9999 -9999 -9999 -9999 -9999 -9999 -9999 -9999 -9999 -9999 -9999 -9999 -9999 -9999 -9999 -9999 -9999 -9999 -9999 -9999 -9999 -9999 -9999 -9999 -9999 -9999 -9999 -9999 -9999 -9999 -9999 -9999 -9999 -9999 1295 1294 1303 1296 1308 1306 1308 1318 1339 1367 1371 1363 1423 1467 1468 1487 1474 1448 1433 1449 1437 1439 1444 1458 1489 1515 1492 1464 1480 1489 1470 1461 1442 1441 1446 1449 1459 1480 1494 1495 1501 1516 1514 1510 1574 1587 1521 1519 1530 1551 1567 1581 1582 1596 1621 1649 1648 1693 1739 1741 1752 1760 1745 1759 1739 1710 1687 1665 1706 1748 1757 1778 1748 1790 1812 1818 1845 1857 1829 1826 1857 1856 1873 1914 1930 1938 1946 1957 1962 1967 1971 1981 1986 1989 1999 1991 1998 2005 2021 2038 2058 2070 2061 2055 2099 2118 2127 2126 2125 2125 2138 2144 2149 2153 2162 2175 2187 2199 2208 2222 2236 2248 2254 2261 2272 2299 2303 2324 -9999 -9999 -9999 -9999 -9999 -9999 -9999 -9999 -9999 -9999 -9999 -9999 -9999 -9999
-9999 -9999 -9999 -9999 -9999 -9999 -9999 -9999 -9999 -9999 -9999 -9999 -9999 -9999 -9999 -9999 -9999 -9999 -9999 -9999 -9999 -9999 -9999 -9999 -9999 -9999 -9999 -9999 -9999 -9999 -9999 -9999 -9999 -9999 -9999 -9999 -9999 -9999 -9999 -9999 -9999 -9999 -9999 -9999 -9999 -9999 -9999 -9999 -9999 -9999 -9999 -9999 -9999 -9999 1288 1284 1297 1287 1295 1300 1293 1311 1330 1336 1352 1342 1346 1383 1433 1437 1453 1453 1451 1430 1431 1423 1438 1469 1479 1498 1515 1491 1461 1468 1484 1467 1448 1438 1442 1465 1468 1464 1482 1501 1507 1518 1513 1497 1491 1494 1525 1525 1501 1513 1523 1547 1543 1557 1552 1591 1657 1617 1643 1725 1740 1771 1777 1771 1769 1742 1742 1705 1689 1683 1713 1712 1727 1741 1788 1820 1823 1864 1909 1839 1840 1875 1875 1885 1918 1939 1941 1951 1959 1959 1965 1968 1975 1982 1991 1990 1978 1998 2019 2039 2056 2088 2082 2068 2089 2118 2128 2132 2136 2126 2127 2143 2152 2156 2161 2168 2181 2193 2198 2207 2231 2247 2259 2274 2283 2268 2284 2302 2324 -9999 -9999 -9999 -9999 -9999 -9999 -9999 -9999 -9999 -9999 -9999 -9999 -9999 -9999
-9999 -9999 -9999 -9999 -9999 -9999 -9999 -9999 -9999 -9999 -9999 -9999 -9999 -9999 -9999 -9999 -9999 -9999 -9999 -9999 -9999 -9999 -9999 -9999 -9999 -9999 -9999 -9999 -9999 -9999 -9999 -9999 -9999 -9999 -9999 -9999 -9999 -9999 -9999 -9999 -9999 -9999 -9999 -9999 -9999 -9999 -9999 -9999 -9999 -9999 -9999 -9999 -9999 1282 1277 1285 1290 1279 1289 1281 1291 1308 1319 1316 1333 1325 1344 1374 1398 1398 1434 1425 1442 1442 1417 1433 1455 1476 1495 1488 1495 1495 1469 1458 1480 1461 1439 1434 1441 1458 1467 1479 1485 1491 1494 1516 1507 1480 1480 1472 1473 1471 1477 1491 1528 1540 1538 1552 1567 1564 1577 1591 1611 1649 1733 1811 1811 1811 1782 1774 1748 1732 1715 1683 1684 1714 1707 1744 1791 1837 1853 1872 1894 1848 1843 1876 1888 1899 1913 1943 1948 1949 1945 1950 1962 1975 1978 1983 1988 1977 1982 2003 2011 2054 2084 2096 2101 2093 2107 2125 2133 2137 2142 2132 2130 2142 2157 2163 2170 2175 2186 2198 2207 2217 2222 2249 2263 2277 2288 2276 2306 2330 2335 -9999 -9999 -9999 -9999 -9999 -9999 -9999 -9999 -9999 -9999 -9999 -9999 -9999 -9999
-9999 -9999 -9999 -9999 -9999 -9999 -9999 -9999 -9999 -9999 -9999 -9999 -9999 -9999 -9999 -9999 -9999 -9999 -9999 -9999 -9999 -9999 -9999 -9999 -9999 -9999 -9999 -9999 -9999 -9999 -9999 -9999 -9999 -9999 -9999 -9999 -9999 -9999 -9999 -9999 -9999 -9999 -9999 -9999 -9999 -9999 -9999 -9999 -9999 -9999 1271 1260 1269 1273 1267 1277 1273 1269 1271 1274 1287 1302 1303 1301 1309 1313 1333 1343 1361 1407 1432 1416 1439 1439 1417 1442 1449 1467 1472 1460 1475 1486 1457 1461 1478 1459 1438 1433 1449 1462 1469 1484 1476 1481 1496 1510 1510 1489 1462 1459 1449 1454 1472 1516 1552 1592 1576 1557 1585 1591 1590 1597 1612 1631 1684 1832 1916 1860 1857 1808 1756 1762 1748 1716 1729 1732 1753 1726 1751 1801 1852 1912 1879 1873 1847 1850 1866 1889 1918 1947 1944 1938 1931 1944 1955 1965 1966 1974 1982 1972 1976 1989 2006 2040 2076 2099 2110 2114 2117 2129 2135 2144 2147 2140 2139 2153 2164 2171 2177 2180 2190 2200 2210 2224 2236 2258 2269 2284 2298 2285 2311 2336 2363 -9999 -9999 -9999 -9999 -9999 -9999 -9999 -9999 -9999 -9999 -9999 -9999 -9999 -9999
-9999 -9999 -9999 -9999 -9999 -9999 -9999 -9999 -9999 -9999 -9999 -9999 -9999 -9999 -9999 -9999 -9999 -9999 -9999 -9999 -9999 -9999 -9999 -9999 -9999 -9999 -9999 -9999 -9999 -9999 -9999 -9999 -9999 -9999 -9999 -9999 -9999 -9999 -9999 -9999 -9999 -9999 -9999 -9999 -9999 -9999 -9999 -9999 1268 1264 1260 1259 1271 1259 1262 1257 1263 1267 1273 1275 1279 1288 1287 1300 1310 1314 1321 1340 1374 1414 1412 1417 1438 1432 1413 1433 1437 1449 1444 1448 1472 1477 1449 1465 1484 1464 1441 1431 1447 1470 1482 1481 1470 1488 1499 1493 1495 1483 1458 1447 1458 1472 1485 1495 1532 1609 1628 1591 1580 1609 1602 1616 1626 1653 1682 1820 1955 1977 1899 1822 1805 1779 1762 1745 1774 1759 1773 1739 1747 1779 1815 1954 1936 1913 1879 1851 1854 1871 1904 1945 1944 1921 1912 1942 1956 1962 1972 1975 1974 1976 1979 1973 1997 2030 2048 2085 2108 2120 2131 2142 2144 2151 2153 2141 2142 2158 2167 2175 2181 2180 2189 2197 2206 2219 2232 2245 2265 2285 2305 2312 2323 2346 2368 -9999 -9999 -9999 -9999 -9999 -9999 -9999 -9999 -9999 -9999 -9999 -9999 -9999 -9999
-9999 -9999 -9999 -9999 -9999 -9999 -9999 -9999 -9999 -9999 -9999 -9999 -9999 -9999 -9999 -9999 -9999 -9999 -9999 -9999 -9999 -9999 -9999 -9999 -9999 -9999 -9999 -9999 -9999 -9999 -9999 -9999 -9999 -9999 1347 1328 1371 -9999 -9999 -9999 -9999 -9999 -9999 -9999 1246 1257 1265 1265 1252 1253 1249 1260 1264 1248 1252 1267 1284 1290 1294 1297 1290 1289 1292 1299 1311 1326 1340 1355 1384 1403 1397 1409 1427 1422 1411 1427 1424 1439 1441 1451 1465 1456 1442 1474 1487 1466 1448 1430 1442 1463 1478 1482 1463 1467 1487 1485 1478 1459 1442 1457 1477 1486 1495 1498 1515 1541 1640 1648 1606 1597 1614 1629 1663 1678 1715 1812 2015 2032 1966 1905 1850 1813 1771 1778 1790 1805 1785 1753 1756 1777 1821 2010 1954 1936 1889 1878 1870 1859 1886 1930 1945 1898 1898 1945 1958 1967 1973 1978 1966 1968 1968 1972 1995 2018 2033 2057 2091 2125 2136 2147 2150 2156 2153 2145 2144 2157 2164 2176 2185 2191 2196 2204 2208 2223 2236 2256 2271 2288 2304 2326 2340 2348 2369 -9999 -9999 -9999 -9999 -9999 -9999 -9999 -9999 -9999 -9999 -9999 -9999 -9999 -9999
-9999 -9999 -9999 -9999 -9999 -9999 -9999 -9999 -9999 -9999 -9999 -9999 -9999 -9999 -9999 -9999 -9999 -9999 -9999 -9999 -9999 -9999 -9999 -9999 -9999 -9999 -9999 -9999 -9999 -9999 -9999 -9999 -9999 -9999 -9999 1303 1325 1305 1278 1262 1248 1249 1246 1244 1239 1257 1259 1246 1239 1241 1244 1261 1258 1245 1257 1274 1281 1287 1289 1304 1314 1316 1305 1310 1314 1328 1353 1376 1380 1388 1392 1412 1427 1409 1414 1427 1420 1438 1454 1465 1456 1434 1450 1471 1494 1482 1455 1432 1434 1446 1472 1485 1460 1463 1480 1479 1458 1445 1447 1454 1460 1468 1479 1482 1492 1507 1553 1691 1663 1618 1617 1639 1689 1730 1745 1863 2020 2097 2025 1942 1863 1814 1794 1810 1813 1825 1786 1792 1784 1780 1801 1850 1852 1880 1894 1915 1909 1933 1868 1896 1930 1905 1908 1941 1943 1958 1954 1960 1956 1969 1985 1975 1989 1993 2013 2042 2084 2133 2140 2153 2157 2161 2160 2149 2151 2154 2165 2176 2186 2199 2203 2213 2222 2231 2237 2245 2271 2287 2297 2322 2347 2351 2383 2376 -9999 -9999 -9999 -9999 -9999 -9999 -9999 -9999 -9999 -9999 -9999 -9999 -9999
-9999 -9999 -9999 -9999 -9999 -9999 -9999 -9999 -9999 -9999 -9999 -9999 -9999 -9999 -9999 -9999 -9999 -9999 -9999 -9999 -9999 -9999 -9999 -9999 -9999 -9999 -9999 -9999 -9999 -9999 -9999 -9999 -9999 -9999 -9999 1327 1277 1277 1261 1250 1242 1236 1232 1231 1243 1256 1248 1233 1236 1244 1253 1259 1243 1253 1259 1260 1266 1275 1282 1296 1311 1327 1331 1325 1337 1341 1362 1365 1386 1407 1415 1434 1438 1400 1416 1417 1419 1448 1464 1438 1426 1438 1453 1479 1490 1476 1455 1434 1428 1449 1469 1464 1455 1476 1479 1462 1439 1446 1477 1479 1485 1476 1475 1475 1476 1499 1524 1590 1731 1673 1639 1664 1705 1758 1820 1854 1997 2081 2036 1929 1851 1819 1810 1841 1835 1826 1788 1810 1807 1816 1798 1814 1831 1846 1886 1918 1999 1999 1920 1871 1875 1872 1903 1912 1922 1925 1915 1953 1976 1998 2001 1984 1978 1983 2023 2047 2074 2130 2138 2149 2157 2164 2158 2155 2156 2159 2161 2171 2188 2198 2207 2217 2228 2238 2247 2255 2267 2285 2302 2321 2348 2370 2402 2388 2410 -9999 -9999 -9999 -9999 -9999 -9999 -9999 -9999 -9999 -9999 -9999 -9999
-9999 -9999 -9999 -9999 -9999 -9999 -9999 -9999 -9999 -9999 -9999 -9999 -9999 -9999 -9999 -9999 -9999 -9999 -9999 -9999 -9999 -9999 -9999 -9999 -9999 -9999 -9999 -9999 -9999 -9999 -9999 -9999 -9999 -9999 -9999 1278 1256 1259 1249 1239 1233 1231 1229 1231 1253 1250 1232 1230 1245 1256 1256 1246 1237 1255 1275 1278 1282 1299 1307 1298 1305 1312 1336 1346 1365 1378 1368 1359 1382 1405 1438 1459 1439 1396 1405 1403 1430 1453 1474 1428 1433 1454 1471 1488 1473 1454 1448 1428 1431 1462 1468 1447 1460 1471 1446 1435 1440 1457 1478 1491 1495 1496 1499 1495 1481 1490 1504 1536 1620 1715 1696 1692 1757 1758 1866 1908 2007 2072 2011 1942 1880 1840 1847 1894 1870 1837 1794 1821 1827 1838 1818 1819 1863 1878 1871 1902 1957 2035 2015 1903 1891 1883 1873 1875 1883 1900 1934 1967 1985 2004 2015 2009 1990 1995 2029 2054 2079 2109 2121 2147 2155 2153 2156 2168 2170 2170 2169 2172 2185 2200 2209 2218 2231 2245 2256 2274 2284 2294 2310 2332 2339 2361 2401 2424 2435 -9999 -9999 -9999 -9999 -9999 -9999 -9999 -9999 -9999 -9999 -9999 -9999
-9999 -9999 -9999 -9999 -9999 -9999 -9999 -9999 -9999 -9999 -9999 -9999 -9999 -9999 -9999 -9999 -9999 -9999 -9999 -9999 -9999 -9999 -9999 -9999 -9999 -9999 -9999 -9999 -9999 -9999 -9999 -9999 -9999 -9999 -9999 1242 1244 1255 1245 1243 1231 1221 1223 1233 1242 1235 1223 1233 1249 1252 1235 1237 1248 1251 1259 1265 1276 1289 1310 1326 1332 1330 1336 1362 1377 1383 1369 1351 1380 1417 1430 1422 1422 1388 1393 1396 1421 1442 1468 1418 1408 1425 1458 1484 1479 1456 1437 1420 1434 1456 1450 1445 1466 1460 1435 1443 1446 1462 1474 1478 1483 1492 1499 1506 1492 1485 1497 1524 1573 1655 1766 1761 1853 1807 1825 1936 2013 2095 2053 1994 1913 1872 1922 2003 1895 1840 1802 1824 1847 1852 1846 1828 1868 1962 1911 1903 1936 1999 1994 1930 1910 1901 1883 1883 1908 1931 1961 1974 1988 1997 2010 2021 2014 2032 2020 2052 2068 2081 2104 2123 2127 2133 2156 2171 2175 2175 2177 2181 2185 2196 2206 2219 2234 2248 2262 2276 2289 2301 2311 2313 2344 2365 2409 2447 2455 -9999 -9999 -9999 -9999 -9999 -9999 -9999 -9999 -9999 -9999 -9999 -9999
-9999 -9999 -9999 -9999 -9999 -9999 -9999 -9999 -9999 -9999 -9999 -9999 -9999 -9999 -9999 -9999 -9999 -9999 -9999 -9999 -9999 -9999 -9999 -9999 -9999 -9999 -9999 -9999 -9999 -9999 -9999 -9999 -9999 -9999 -9999 1238 1236 1244 1232 1234 1230 1216 1227 1227 1222 1220 1229 1242 1256 1250 1230 1238 1239 1249 1262 1271 1282 1299 1306 1309 1329 1347 1364 1367 1364 1370 1363 1338 1363 1394 1390 1403 1406 1379 1384 1404 1432 1442 1463 1420 1397 1429 1466 1478 1471 1471 1444 1419 1435 1438 1434 1448 1451 1445 1430 1442 1458 1453 1460 1476 1492 1488 1485 1492 1505 1508 1489 1499 1512 1565 1629 1784 1910 1879 1856 1981 2039 2108 2083 2063 1990 1987 2002 1983 1908 1856 1814 1840 1861 1881 1877 1854 1919 1968 1936 1931 1937 1944 1976 1962 1936 1910 1904 1905 1905 1952 1971 1979 1987 1990 1986 1993 2022 2049 2035 2043 2054 2082 2092 2094 2111 2128 2141 2161 2171 2185 2191 2190 2188 2198 2208 2224 2238 2249 2263 2277 2293 2305 2321 2333 2345 2364 2397 2461 2481 2485 -9999 -9999 -9999 -9999 -9999 -9999 -9999 -9999 -9999 -9999 -9999
-9999 -9999 -9999 -9999 -9999 -9999 -9999 -9999 -9999 -9999 -9999 -9999 -9999 -9999 -9999 -9999 -9999 -9999 -9999 -9999 -9999 -9999 -9999 -9999 -9999 -9999 -9999 -9999 -9999 -9999 -9999 -9999 -9999 -9999 -9999 1240 1231 1223 1220 1218 1213 1221 1223 1214 1218 1228 1239 1244 1249 1237 1225 1235 1245 1250 1259 1262 1267 1280 1294 1319 1328 1348 1345 1346 1353 1342 1340 1329 1346 1363 1375 1402 1408 1379 1394 1423 1434 1420 1410 1394 1388 1411 1435 1448 1443 1453 1430 1411 1420 1424 1430 1431 1426 1426 1438 1450 1476 1470 1471 1491 1508 1521 1493 1507 1504 1517 1503 1501 1511 1524 1561 1634 1717 1829 1914 1986 2061 2105 2097 2067 2047 2035 2023 1997 1889 1849 1830 1825 1855 1879 1874 1889 1906 1900 1926 1927 1913 1950 1938 1959 1958 1917 1928 1923 1922 1944 1958 1973 1976 1959 1952 1979 2022 2055 2057 2070 2059 2068 2078 2081 2099 2115 2126 2149 2184 2199 2202 2201 2197 2197 2208 2218 2238 2251 2267 2277 2292 2302 2313 2325 2342 2358 2405 2429 2467 2493 -9999 -9999 -9999 -9999 -9999 -9999 -9999 -9999 -9999 -9999 -9999
-9999 -9999 -9999 -9999 -9999 -9999 -9999 -9999 -9999 -9999 -9999 -9999 -9999 -9999 -9999 -9999 -9999 -9999 -9999 -9999 -9999 -9999 -9999 -9999 -9999 -9999 -9999 -9999 -9999 -9999 -9999 -9999 -9999 -9999 -9999 1235 1235 1234 1226 1208 1217 1223 1212 1218 1226 1228 1231 1235 1226 1226 1234 1233 1246 1253 1252 1253 1263 1270 1285 1300 1329 1338 1316 1322 1335 1320 1317 1333 1359 1376 1380 1397 1393 1372 1384 1400 1420 1397 1382 1379 1412 1411 1417 1440 1438 1418 1405 1421 1424 1410 1413 1416 1430 1441 1461 1465 1494 1486 1485 1505 1527 1513 1495 1502 1516 1533 1527 1506 1514 1522 1539 1575 1617 1650 1794 1972 1999 2115 2130 2095 2069 2049 1990 1936 1872 1853 1839 1846 1827 1844 1858 1887 1885 1874 1918 1920 1906 1920 1914 1948 1965 1930 1945 1940 1932 1919 1925 1936 1938 1968 1973 1972 2032 2065 2078 2083 2081 2088 2105 2095 2094 2107 2122 2158 2199 2205 2205 2206 2207 2202 2214 2226 2235 2245 2260 2271 2283 2294 2307 2319 2328 2354 2382 2420 2460 2476 2502 2522 -9999 -9999 -9999 -9999 -9999 -9999 -9999 -9999 -9999
-9999 -9999 -9999 -9999 -9999 -9999 -9999 -9999 -9999 -9999 -9999 -9999 -9999 -9999 -9999 -9999 -9999 -9999 -9999 -9999 -9999 -9999 -9999 -9999 -9999 -9999 -9999 -9999 -9999 -9999 -9999 -9999 -9999 -9999 -9999 1228 1228 1224 1224 1206 1215 1209 1208 1218 1211 1212 1226 1224 1218 1233 1241 1245 1241 1245 1250 1259 1272 1280 1289 1297 1315 1321 1304 1305 1311 1300 1307 1342 1378 1400 1403 1399 1390 1371 1367 1391 1406 1374 1363 1389 1430 1437 1443 1447 1424 1406 1396 1424 1413 1410 1440 1442 1440 1459 1471 1476 1494 1503 1513 1523 1544 1531 1506 1503 1522 1553 1546 1524 1521 1525 1534 1557 1589 1620 1673 1798 1971 2110 2119 2114 2108 2057 1992 1902 1886 1871 1850 1874 1857 1830 1848 1875 1852 1868 1891 1885 1885 1908 1936 1953 1978 1949 1935 1960 1947 1935 1945 1956 1965 2000 2012 1990 2014 2051 2083 2092 2092 2097 2114 2110 2110 2106 2115 2141 2180 2193 2194 2205 2209 2209 2217 2229 2242 2254 2263 2272 2286 2300 2315 2330 2352 2366 2406 2439 2446 2474 2510 2528 2541 -9999 -9999 -9999 -9999 -9999 -9999 -9999 -9999
-9999 -9999 -9999 -9999 -9999 -9999 -9999 -9999 -9999 -9999 -9999 -9999 -9999 -9999 -9999 -9999 -9999 -9999 -9999 -9999 -9999 -9999 -9999 -9999 -9999 -9999 -9999 -9999 -9999 -9999 -9999 -9999 -9999 -9999 1230 1222 1228 1214 1207 1199 1203 1199 1207 1205 1214 1212 1212 1215 1225 1235 1242 1244 1260 1270 1273 1274 1272 1275 1293 1288 1296 1307 1299 1291 1290 1308 1329 1349 1388 1405 1387 1373 1379 1364 1375 1387 1382 1372 1365 1398 1416 1421 1431 1423 1404 1386 1398 1409 1401 1427 1443 1439 1449 1461 1467 1475 1490 1511 1514 1532 1540 1542 1520 1514 1539 1554 1553 1553 1542 1538 1551 1561 1596 1607 1632 1696 1849 2024 2072 2069 2067 2066 1992 1927 1886 1863 1865 1908 1899 1854 1850 1841 1849 1857 1853 1868 1899 1908 1932 1942 1959 1976 1950 1951 1965 1966 1961 1972 1971 1991 2028 2036 2022 2041 2080 2099 2103 2108 2120 2120 2126 2135 2137 2125 2138 2159 2177 2202 2201 2214 2222 2235 2247 2261 2270 2273 2291 2300 2323 2343 2355 2378 2411 2449 2450 2467 2508 2540 2559 -9999 -9999 -9999 -9999 -9999 -9999 -9999 -9999
-9999 -9999 -9999 -9999 -9999 -9999 -9999 -9999 -9999 -9999 -9999 -9999 -9999 -9999 -9999 -9999 -9999 -9999 -9999 -9999 -9999 -9999 -9999 -9999 -9999 -9999 -9999 -9999 -9999 -9999 -9999 -9999 -9999 1234 1229 1216 1222 1208 1195 1200 1204 1211 1208 1218 1231 1233 1230 1236 1240 1249 1262 1264 1265 1263 1256 1257 1254 1269 1274 1279 1284 1292 1283 1282 1290 1304 1325 1354 1383 1397 1376 1371 1353 1357 1381 1378 1358 1356 1351 1381 1383 1388 1404 1392 1377 1395 1413 1397 1410 1417 1430 1443 1444 1452 1468 1483 1497 1502 1526 1543 1554 1549 1544 1530 1528 1542 1555 1570 1553 1551 1576 1585 1590 1614 1632 1660 1824 1955 2054 2049 2000 2008 2015 1968 1913 1864 1878 1949 1958 1896 1872 1862 1883 1902 1879 1853 1862 1874 1888 1904 1951 1984 1976 1963 1960 1972 1974 1961 1945 1958 2026 2057 2052 2042 2070 2104 2112 2120 2131 2129 2134 2148 2157 2151 2149 2144 2161 2183 2192 2203 2222 2231 2244 2267 2284 2284 2297 2305 2323 2340 2360 2380 2421 2448 2474 2486 2495 2532 2563 -9999 -9999 -9999 -9999 -9999 -9999 -9999 -9999
-9999 -9999 -9999 -9999 -9999 -9999 -9999 -9999 -9999 -9999 -9999 -9999 -9999 -9999 -9999 -9999 -9999 -9999 -9999 -9999 -9999 -9999 -9999 -9999 -9999 -9999 -9999 -9999 -9999 -9999 -9999 -9999 1229 1235 1224 1211 1211 1197 1196 1209 1227 1235 1234 1229 1234 1228 1225 1231 1235 1248 1257 1257 1251 1239 1242 1247 1248 1252 1265 1274 1269 1273 1283 1303 1310 1314 1338 1353 1372 1374 1365 1350 1348 1374 1386 1378 1350 1337 1350 1372 1364 1367 1363 1367 1393 1407 1399 1393 1417 1435 1451 1460 1467 1465 1473 1505 1520 1527 1526 1556 1574 1581 1563 1545 1539 1547 1553 1560 1570 1583 1595 1615 1617 1628 1645 1636 1691 1931 2018 2049 2025 1985 1994 1972 1927 1901 1899 1996 2018 1945 1893 1884 1873 1900 1899 1888 1864 1860 1873 1893 1940 1956 1990 1987 1961 1950 1967 1950 1938 1964 2027 2059 2071 2084 2090 2104 2118 2130 2138 2139 2139 2159 2167 2170 2171 2163 2171 2172 2173 2189 2204 2221 2240 2261 2282 2287 2302 2313 2327 2342 2369 2403 2427 2437 2465 2495 2509 2523 2542 2562 -9999 -9999 -9999 -9999 -9999 -9999 -9999
-9999 -9999 -9999 -9999 -9999 -9999 -9999 -9999 -9999 -9999 -9999 -9999 -9999 -9999 -9999 1226 1220 1216 -9999 -9999 -9999 -9999 -9999 -9999 -9999 -9999 -9999 -9999 1222 1216 1221 1227 1226 1236 1225 1206 1201 1193 1214 1224 1231 1250 1246 1220 1213 1210 1222 1230 1234 1233 1230 1231 1233 1236 1255 1264 1267 1257 1257 1260 1273 1277 1283 1298 1325 1322 1345 1359 1374 1354 1341 1340 1359 1360 1355 1357 1338 1332 1355 1359 1345 1339 1345 1368 1386 1382 1383 1398 1410 1429 1440 1455 1462 1480 1494 1515 1542 1545 1542 1561 1600 1613 1595 1579 1563 1556 1564 1575 1597 1632 1624 1616 1613 1624 1614 1627 1648 1783 2011 2007 1996 1986 1968 1965 1959 1970 1939 1975 1978 1993 1943 1904 1883 1885 1916 1910 1876 1882 1920 1900 1905 1948 1963 1970 1954 1925 1933 1926 1943 1994 2005 2020 2068 2092 2102 2113 2123 2136 2140 2148 2146 2156 2167 2176 2182 2181 2184 2189 2188 2203 2215 2218 2239 2257 2264 2287 2303 2316 2325 2344 2375 2398 2417 2441 2463 2490 2500 2516 2544 2568 2585 -9999 -9999 -9999 -9999 -9999 -9999
-9999 -9999 -9999 -9999 -9999 -9999 -9999 -9999 -9999 -9999 -9999 -9999 -9999 -9999 1238 1217 1202 1213 1223 -9999 -9999 1214 -9999 -9999 -9999 -9999 -9999 -9999 1220 1211 1225 1229 1219 1232 1228 1204 1196 1192 1206 1225 1238 1228 1239 1208 1206 1210 1210 1215 1217 1220 1224 1231 1234 1239 1241 1258 1270 1273 1272 1270 1278 1290 1295 1311 1335 1341 1353 1366 1373 1357 1332 1354 1372 1355 1334 1322 1327 1328 1336 1334 1333 1339 1341 1355 1358 1375 1389 1407 1414 1416 1430 1447 1459 1495 1503 1514 1528 1525 1548 1559 1547 1553 1570 1560 1549 1576 1602 1625 1634 1664 1650 1619 1607 1614 1612 1630 1628 1678 1852 2018 2021 1991 1995 1981 2012 2003 1994 1976 1947 1928 1930 1902 1902 1905 1897 1919 1892 1910 1946 1918 1903 1907 1946 1943 1959 1928 1912 1937 1971 1985 2031 2058 2070 2095 2112 2120 2126 2132 2136 2146 2149 2151 2163 2171 2184 2189 2192 2200 2195 2210 2224 2227 2231 2242 2256 2270 2292 2308 2314 2337 2354 2371 2402 2426 2449 2465 2489 2516 2549 2575 2595 2601 -9999 -9999 -9999 -9999 -9999
-9999 -9999 -9999 -9999 -9999 -9999 -9999 -9999 -9999 -9999 -9999 -9999 -9999 1241 1229 1216 1205 1203 1214 1208 1208 1201 -9999 -9999 -9999 -9999 1211 1209 1216 1206 1220 1228 1214 1226 1223 1198 1192 1191 1203 1213 1218 1211 1209 1199 1214 1229 1230 1230 1229 1236 1241 1244 1256 1261 1247 1250 1259 1266 1276 1285 1296 1297 1312 1320 1332 1349 1366 1376 1365 1336 1334 1352 1374 1369 1335 1318 1331 1320 1322 1325 1334 1353 1365 1360 1377 1386 1411 1412 1432 1426 1456 1486 1490 1492 1497 1503 1507 1525 1535 1524 1525 1511 1518 1555 1588 1590 1616 1617 1631 1639 1639 1627 1601 1597 1606 1612 1616 1643 1692 1970 2030 2009 1990 2004 2047 2014 2028 2008 1986 1950 1925 1902 1929 1911 1902 1913 1930 1941 1979 1958 1943 1923 1914 1916 1918 1909 1903 1913 1951 1974 2007 2029 2019 2089 2110 2114 2119 2127 2134 2133 2144 2160 2171 2176 2183 2190 2196 2205 2204 2204 2220 2234 2247 2256 2268 2280 2288 2308 2320 2336 2356 2379 2406 2422 2457 2481 2497 2522 2539 2579 2611 2618 -9999 -9999 -9999 -9999 -9999
-9999 -9999 -9999 -9999 -9999 -9999 -9999 -9999 -9999 -9999 -9999 -9999 1235 1218 1223 1206 1190 1192 1201 1203 1192 1205 1217 -9999 1219 1210 1214 1203 1204 1203 1222 1223 1208 1213 1208 1189 1187 1186 1189 1188 1196 1195 1195 1211 1215 1225 1238 1246 1245 1247 1255 1259 1269 1276 1263 1257 1270 1283 1296 1296 1314 1316 1329 1341 1335 1348 1363 1375 1361 1333 1332 1351 1365 1355 1344 1317 1313 1321 1340 1350 1345 1380 1413 1406 1408 1413 1420 1424 1449 1435 1442 1470 1486 1478 1493 1484 1499 1498 1511 1498 1499 1516 1536 1556 1585 1585 1595 1598 1623 1617 1613 1603 1593 1602 1618 1626 1620 1639 1665 1850 2048 2025 2021 2006 2054 2040 2061 2024 2018 1974 1933 1925 1944 1913 1928 1914 1929 1963 1990 2009 1977 1959 1927 1907 1897 1908 1927 1945 1949 1952 1974 1997 2029 2088 2102 2112 2123 2126 2126 2134 2146 2164 2173 2176 2179 2188 2197 2205 2213 2219 2219 2236 2252 2264 2275 2285 2297 2311 2322 2332 2343 2376 2411 2432 2440 2459 2484 2503 2534 2573 2598 2631 2647 -9999 -9999 -9999 -9999
-9999 -9999 -9999 -9999 -9999 -9999 -9999 -9999 -9999 -9999 -9999 -9999 1230 1204 1198 1205 1188 1192 1189 1201 1187 1202 1204 1218 1214 1207 1220 1205 1192 1208 1215 1206 1204 1209 1198 1181 1187 1200 1208 1208 1205 1208 1201 1198 1207 1213 1218 1230 1231 1240 1247 1265 1273 1282 1281 1275 1284 1289 1303 1316 1325 1338 1350 1338 1333 1352 1353 1363 1351 1335 1319 1347 1351 1337 1337 1322 1307 1305 1329 1367 1361 1371 1428 1463 1432 1458 1449 1456 1450 1462 1467 1468 1462 1465 1473 1468 1472 1475 1481 1492 1495 1518 1525 1540 1559 1559 1573 1609 1627 1634 1638 1607 1592 1593 1620 1632 1631 1658 1665 1742 1947 2035 2026 2016 2037 2062 2088 2056 2026 1961 1966 1948 1952 1923 1943 1934 1938 1945 1987 2013 1965 1936 1920 1942 1926 1906 1948 2003 2005 2012 2019 2048 2069 2087 2098 2113 2121 2117 2123 2132 2146 2163 2162 2169 2181 2193 2201 2208 2219 2221 2227 2232 2250 2259 2269 2276 2290 2297 2312 2327 2343 2381 2408 2430 2437 2469 2510 2517 2532 2562 2594 2620 2649 -9999 -9999 -9999 -9999
-9999 -9999 -9999 -9999 -9999 -9999 -9999 -9999 -9999 -9999 -9999 -9999 1233 1222 1200 1195 1187 1179 1184 1196 1180 1186 1198 1220 1211 1200 1213 1201 1189 1201 1196 1203 1206 1200 1187 1182 1191 1196 1204 1219 1229 1231 1215 1208 1203 1221 1225 1219 1233 1247 1249 1264 1275 1271 1272 1278 1301 1315 1313 1329 1348 1332 1343 1340 1321 1329 1347 1340 1329 1326 1314 1339 1332 1335 1324 1330 1311 1309 1320 1346 1380 1394 1409 1479 1456 1482 1487 1498 1481 1477 1474 1458 1458 1471 1470 1481 1499 1480 1505 1514 1507 1515 1532 1526 1537 1550 1562 1587 1629 1634 1616 1605 1597 1584 1599 1604 1620 1705 1686 1702 1892 2037 2029 2043 2039 2025 2050 2066 2047 1990 1985 2006 1980 1943 1955 1968 1987 2005 2003 2006 1963 1965 1929 1965 1961 1905 1947 2010 2029 2025 2030 2061 2087 2093 2092 2097 2108 2122 2129 2135 2145 2150 2156 2169 2180 2189 2195 2204 2218 2227 2234 2239 2239 2247 2258 2266 2274 2294 2306 2318 2342 2384 2411 2431 2435 2457 2488 2529 2537 2553 2578 2614 2653 -9999 -9999 -9999 -9999
-9999 -9999 -9999 -9999 -9999 -9999 -9999 -9999 -9999 -9999 -9999 1221 1212 1220 1216 1204 1199 1180 1179 1180 1186 1205 1208 1211 1201 1190 1201 1196 1183 1187 1196 1200 1193 1181 1182 1194 1211 1213 1203 1204 1229 1238 1219 1230 1219 1214 1236 1238 1227 1242 1257 1264 1260 1258 1278 1286 1297 1319 1327 1340 1345 1321 1334 1339 1312 1317 1337 1334 1313 1320 1315 1329 1319 1325 1313 1311 1299 1306 1312 1331 1368 1406 1423 1452 1464 1491 1501 1508 1497 1475 1456 1451 1473 1484 1492 1494 1505 1487 1512 1541 1533 1530 1558 1541 1557 1563 1570 1584 1632 1620 1607 1600 1583 1594 1609 1613 1615 1634 1656 1675 1806 2012 2050 2082 2056 2018 2019 2026 2056 2049 2006 2034 2013 2004 1977 2008 2072 2104 2058 2009 1972 1956 1934 1961 1962 1906 1911 1968 2026 2045 2054 2057 2067 2076 2089 2111 2114 2117 2119 2130 2138 2148 2157 2163 2172 2184 2193 2204 2213 2222 2235 2244 2252 2255 2264 2274 2280 2283 2294 2313 2358 2388 2408 2431 2441 2455 2480 2506 2526 2564 2579 2618 2644 2676 -9999 -9999 -9999
-9999 -9999 -9999 -9999 -9999 -9999 -9999 -9999 -9999 -9999 -9999 1215 1191 1209 1204 1183 1182 1176 1170 1170 1185 1201 1195 1206 1190 1183 1193 1183 1180 1182 1178 1185 1176 1186 1204 1207 1211 1228 1219 1199 1221 1237 1233 1241 1222 1214 1222 1234 1239 1233 1241 1244 1253 1265 1277 1299 1315 1326 1311 1326 1322 1312 1332 1342 1322 1307 1332 1330 1304 1304 1312 1312 1306 1302 1302 1296 1300 1309 1320 1329 1349 1371 1390 1386 1442 1483 1473 1493 1480 1466 1450 1444 1457 1465 1470 1488 1522 1512 1514 1535 1549 1547 1571 1557 1557 1570 1581 1597 1642 1619 1598 1584 1579 1610 1613 1594 1602 1625 1646 1680 1774 1949 2024 2073 2042 2048 2036 2009 2025 2034 2025 1995 1993 2008 2026 2016 2023 2036 2026 2021 1982 1968 1943 1982 1990 1926 1915 1977 2006 2030 2054 2076 2084 2092 2100 2112 2124 2128 2128 2135 2139 2151 2157 2166 2176 2181 2189 2199 2210 2225 2235 2243 2255 2267 2274 2275 2283 2293 2299 2318 2363 2384 2408 2431 2453 2460 2485 2503 2535 2544 2571 2603 2631 2675 2700 -9999 -9999
-9999 -9999 -9999 -9999 -9999 -9999 -9999 -9999 -9999 -9999 -9999 1213 1187 1198 1198 1199 1184 1184 1166 1177 1190 1190 1187 1198 1180 1171 1174 1175 1175 1172 1181 1177 1186 1204 1220 1230 1223 1237 1230 1207 1208 1234 1262 1240 1236 1232 1217 1225 1231 1244 1256 1260 1250 1261 1279 1289 1287 1314 1304 1318 1313 1314 1335 1327 1309 1298 1319 1317 1296 1304 1307 1301 1296 1292 1300 1305 1322 1313 1317 1333 1341 1346 1354 1362 1407 1477 1461 1459 1461 1455 1441 1445 1459 1481 1485 1502 1542 1540 1543 1549 1574 1572 1570 1582 1572 1564 1575 1597 1623 1604 1590 1580 1595 1620 1607 1590 1603 1618 1659 1690 1741 1924 2038 2082 2067 2059 2046 2012 2007 2006 1990 1983 1974 1973 1991 1998 1987 2014 1994 2001 1999 1982 1950 1997 2008 1940 1946 2005 2031 2024 2038 2062 2080 2088 2093 2100 2110 2112 2113 2121 2129 2143 2145 2154 2164 2171 2177 2189 2206 2214 2224 2238 2251 2265 2273 2282 2286 2295 2310 2314 2329 2370 2399 2427 2452 2470 2486 2513 2532 2559 2565 2587 2616 2641 2688 -9999 -9999
-9999 -9999 -9999 -9999 -9999 -9999 -9999 -9999 -9999 -9999 1206 1194 1196 1177 1185 1207 1203 1183 1165 1169 1184 1174 1185 1173 1163 1164 1169 1172 1174 1180 1199 1204 1205 1200 1224 1240 1250 1255 1238 1225 1219 1242 1259 1247 1247 1227 1232 1228 1243 1237 1256 1275 1275 1266 1260 1271 1283 1313 1306 1302 1299 1307 1325 1331 1318 1299 1322 1309 1292 1289 1290 1293 1293 1308 1316 1328 1334 1328 1333 1326 1343 1383 1379 1382 1411 1449 1458 1435 1429 1442 1442 1461 1467 1478 1481 1499 1550 1548 1541 1551 1565 1587 1594 1608 1606 1587 1593 1600 1626 1602 1590 1570 1597 1610 1603 1606 1606 1634 1650 1684 1769 1966 2021 2101 2098 2056 2029 2005 2029 2052 2027 2034 1996 1966 1966 1965 1993 2029 2011 1989 1970 1960 1966 2010 2039 1978 2006 2037 2049 2041 2043 2048 2062 2072 2085 2097 2099 2120 2127 2132 2139 2144 2151 2160 2158 2158 2165 2179 2188 2201 2221 2235 2245 2258 2270 2281 2289 2297 2309 2335 2351 2375 2393 2412 2444 2470 2495 2518 2543 2561 2581 2578 2593 2632 2648 2675 -9999
-9999 -9999 -9999 -9999 -9999 -9999 -9999 -9999 -9999 -9999 1196 1180 1192 1173 1188 1188 1191 1181 1170 1164 1180 1166 1172 1164 1173 1170 1168 1172 1188 1197 1188 1194 1207 1210 1217 1227 1236 1255 1253 1232 1216 1230 1245 1255 1251 1226 1238 1241 1240 1245 1250 1265 1273 1283 1280 1270 1290 1306 1293 1297 1310 1315 1323 1312 1300 1292 1306 1300 1286 1289 1293 1297 1308 1312 1320 1344 1356 1345 1353 1341 1355 1376 1405 1410 1433 1442 1433 1431 1444 1438 1448 1460 1483 1506 1503 1509 1529 1524 1538 1541 1554 1571 1580 1591 1609 1614 1618 1623 1626 1595 1567 1561 1568 1576 1613 1635 1616 1677 1681 1689 1743 1884 2027 2073 2094 2058 2028 2031 2052 2056 2058 2022 2012 1992 1969 1955 1978 2005 2021 1993 1970 1978 1983 2024 2050 2031 2028 2041 2062 2076 2055 2065 2093 2101 2105 2111 2107 2109 2120 2127 2143 2154 2163 2169 2167 2163 2174 2190 2197 2199 2211 2226 2244 2262 2268 2272 2282 2284 2299 2323 2357 2377 2397 2419 2445 2471 2489 2522 2542 2559 2582 2600 2610 2644 2651 -9999 -9999
-9999 -9999 -9999 -9999 -9999 -9999 -9999 -9999 1208 1197 1193 1177 1182 1169 1181 1178 1177 1181 1168 1164 1173 1162 1161 1163 1172 1187 1186 1201 1208 1202 1194 1206 1196 1205 1207 1214 1233 1263 1258 1228 1227 1227 1235 1245 1237 1241 1243 1252 1240 1261 1265 1266 1284 1285 1301 1290 1286 1286 1299 1316 1321 1320 1316 1291 1281 1281 1281 1285 1287 1303 1306 1322 1320 1332 1317 1329 1340 1353 1367 1369 1382 1379 1399 1425 1438 1439 1420 1442 1470 1466 1464 1475 1497 1523 1511 1497 1512 1517 1526 1540 1550 1564 1567 1576 1578 1597 1601 1600 1620 1595 1566 1566 1584 1584 1575 1588 1599 1659 1718 1710 1867 2007 2045 2058 2071 2067 2032 2045 2042 2068 2062 2000 1987 1987 1958 1967 1995 2009 2019 1983 1989 1987 2032 2047 2057 2048 2036 2030 2052 2089 2083 2061 2078 2088 2089 2100 2111 2106 2109 2122 2135 2141 2154 2163 2173 2177 2176 2184 2198 2209 2217 2225 2231 2247 2253 2261 2267 2281 2295 2309 2349 2377 2398 2421 2445 2462 2496 2524 2537 2563 2578 2615 2613 2645 2665 -9999 -9999
-9999 -9999 -9999 -9999 -9999 -9999 -9999 1201 1185 1176 1192 1178 1163 1169 1179 1181 1163 1168 1158 1162 1159 1157 1161 1169 1183 1190 1211 1228 1213 1195 1209 1223 1211 1217 1232 1226 1246 1267 1250 1235 1238 1229 1248 1252 1245 1260 1260 1268 1254 1249 1271 1286 1295 1305 1314 1303 1283 1296 1300 1313 1314 1303 1298 1282 1284 1293 1294 1292 1305 1316 1309 1324 1335 1335 1336 1327 1337 1347 1358 1384 1403 1408 1417 1431 1424 1418 1416 1435 1443 1460 1468 1483 1499 1510 1486 1499 1517 1529 1529 1529 1536 1549 1548 1556 1559 1581 1613 1603 1603 1599 1568 1552 1576 1568 1576 1574 1590 1621 1762 1725 1882 2051 2074 2069 2055 2039 2035 2034 1991 2009 2052 2028 1964 1979 1952 1954 1969 2006 2016 2005 2005 1998 2032 2059 2064 2060 2059 2052 2044 2071 2086 2089 2087 2104 2120 2121 2116 2115 2124 2130 2143 2145 2144 2154 2174 2185 2188 2182 2191 2203 2217 2230 2239 2248 2259 2258 2264 2280 2293 2310 2346 2371 2397 2421 2452 2476 2493 2506 2534 2553 2582 2606 2632 2650 2688 -9999 -9999
-9999 -9999 -9999 -9999 -9999 1212 1211 1204 1194 1175 1176 1188 1163 1168 1176 1164 1163 1155 1154 1157 1160 1163 1179 1194 1209 1205 1212 1230 1219 1207 1209 1234 1236 1218 1241 1241 1238 1266 1248 1246 1240 1239 1237 1246 1253 1273 1273 1283 1283 1255 1268 1284 1294 1303 1307 1284 1283 1308 1308 1316 1305 1290 1281 1278 1279 1293 1308 1304 1318 1327 1323 1317 1342 1346 1354 1350 1347 1359 1372 1396 1396 1411 1413 1411 1411 1421 1440 1439 1450 1474 1480 1492 1505 1486 1477 1510 1514 1503 1506 1543 1556 1550 1550 1549 1577 1611 1644 1601 1596 1608 1586 1557 1575 1568 1572 1562 1571 1612 1774 1797 1890 2041 2074 2071 2077 2060 2006 2012 1975 1987 1986 2002 1956 1947 1951 1976 1972 2004 2025 2038 2016 2000 2036 2055 2069 2065 2075 2071 2053 2058 2090 2119 2128 2134 2135 2146 2133 2127 2137 2145 2148 2152 2163 2167 2170 2184 2186 2184 2189 2204 2213 2223 2234 2250 2254 2263 2274 2284 2291 2300 2332 2370 2390 2417 2449 2477 2486 2505 2528 2553 2571 2591 2631 2652 2680 -9999 -9999
-9999 -9999 -9999 -9999 -9999 1198 1188 1195 1188 1173 1163 1186 1169 1154 1171 1166 1153 1154 1163 1160 1169 1172 1180 1201 1246 1208 1207 1233 1243 1222 1207 1237 1254 1242 1225 1249 1257 1277 1267 1262 1257 1243 1255 1246 1260 1280 1297 1295 1293 1273 1290 1297 1289 1296 1305 1293 1277 1293 1295 1288 1279 1277 1282 1288 1292 1297 1304 1318 1315 1314 1326 1320 1333 1352 1361 1380 1382 1390 1387 1379 1378 1389 1397 1403 1422 1447 1447 1437 1441 1452 1459 1474 1479 1468 1485 1493 1489 1500 1512 1522 1543 1565 1568 1573 1577 1608 1595 1587 1581 1603 1566 1572 1564 1559 1564 1565 1576 1602 1701 1893 1970 2059 2081 2082 2086 2050 1996 1971 1959 1980 1968 1988 1957 1944 1981 1986 1988 1998 2019 2048 2035 2042 2031 2036 2050 2059 2072 2084 2084 2063 2084 2118 2135 2146 2151 2157 2154 2142 2157 2166 2167 2167 2179 2181 2171 2177 2178 2182 2190 2197 2204 2213 2229 2245 2250 2260 2279 2294 2300 2314 2342 2368 2394 2414 2433 2469 2496 2504 2527 2552 2566 2591 2629 2660 2677 -9999 -9999
-9999 -9999 -9999 -9999 -9999 1208 1195 1181 1183 1181 1159 1171 1179 1156 1161 1152 1155 1161 1169 1175 1167 1185 1205 1247 1249 1241 1278 1234 1252 1227 1215 1228 1245 1252 1240 1243 1277 1286 1287 1277 1258 1257 1268 1263 1271 1292 1301 1290 1300 1305 1306 1296 1276 1285 1300 1289 1267 1272 1274 1267 1276 1294 1312 1315 1314 1319 1306 1321 1340 1336 1333 1333 1336 1351 1352 1366 1383 1391 1366 1384 1386 1391 1412 1429 1431 1436 1424 1411 1413 1419 1428 1445 1458 1462 1465 1477 1483 1505 1534 1551 1545 1580 1580 1586 1579 1586 1590 1594 1589 1577 1569 1559 1563 1574 1563 1561 1568 1600 1691 1835 1962 2022 2076 2035 2065 2073 2019 1997 1970 1955 1953 1979 1946 1944 1956 1980 1971 1978 1985 2013 2030 2060 2057 2052 2059 2076 2077 2085 2094 2088 2084 2098 2127 2139 2141 2157 2168 2158 2159 2172 2180 2189 2196 2192 2178 2173 2175 2187 2197 2204 2207 2217 2223 2232 2250 2255 2271 2292 2313 2347 2383 2382 2402 2411 2440 2459 2486 2508 2527 2541 2559 2587 2655 2679 2695 -9999 -9999
-9999 -9999 -9999 -9999 1210 1209 1210 1188 1174 1168 1160 1155 1165 1149 1150 1152 1156 1163 1175 1189 1177 1183 1219 1309 1250 1272 1301 1252 1265 1237 1227 1250 1242 1252 1267 1273 1276 1275 1283 1283 1266 1268 1282 1284 1281 1294 1284 1292 1304 1290 1297 1282 1273 1290 1281 1268 1262 1267 1272 1282 1289 1295 1315 1303 1313 1332 1326 1333 1349 1362 1363 1359 1352 1369 1374 1369 1383 1364 1378 1389 1394 1410 1421 1439 1409 1408 1400 1416 1422 1431 1441 1455 1453 1479 1483 1476 1499 1497 1528 1560 1576 1575 1582 1577 1567 1566 1577 1595 1593 1567 1576 1557 1563 1579 1582 1573 1571 1588 1661 1768 1870 1953 2061 2033 2012 2054 2012 1977 1960 1946 1945 1950 1959 1930 1955 1973 1954 1958 1968 1987 2013 2031 2053 2075 2084 2086 2089 2093 2098 2103 2115 2112 2109 2143 2149 2155 2158 2166 2169 2169 2177 2192 2204 2204 2190 2193 2186 2183 2188 2195 2198 2206 2224 2240 2243 2255 2277 2301 2339 2365 2395 2421 2437 2435 2438 2463 2479 2490 2526 2529 2559 2589 2634 2689 -9999 -9999 -9999
-9999 -9999 -9999 -9999 1184 1188 1196 1187 1189 1182 1180 1154 1153 1150 1157 1159 1170 1166 1190 1210 1197 1215 1247 1276 1267 1314 1269 1341 1283 1256 1245 1265 1272 1266 1294 1284 1262 1277 1300 1303 1295 1273 1293 1298 1277 1284 1283 1293 1287 1273 1280 1281 1267 1281 1265 1256 1274 1275 1280 1283 1276 1287 1296 1286 1307 1317 1335 1344 1358 1353 1344 1354 1359 1368 1384 1378 1362 1352 1371 1360 1374 1382 1401 1417 1398 1392 1395 1434 1441 1455 1452 1441 1468 1486 1503 1493 1497 1519 1521 1564 1576 1561 1549 1576 1572 1556 1566 1587 1581 1575 1559 1558 1577 1580 1593 1601 1580 1589 1637 1718 1791 1949 2042 2038 1993 2024 2018 1971 1969 1981 1989 1961 1940 1948 1935 1952 1941 1955 1973 1970 2012 2042 2056 2072 2081 2089 2099 2108 2104 2112 2123 2125 2128 2147 2157 2161 2164 2174 2178 2182 2179 2196 2213 2220 2213 2213 2198 2191 2194 2194 2198 2211 2219 2234 2252 2252 2269 2280 2325 2350 2381 2418 2439 2456 2478 2465 2480 2493 2507 2550 2570 2599 2638 2680 -9999 -9999 -9999
-9999 -9999 -9999 -9999 1171 1170 1169 1178 1198 1171 1173 1155 1147 1153 1170 1179 1173 1184 1224 1272 1225 1206 1227 1258 1323 1364 1306 1336 1283 1281 1270 1284 1293 1287 1291 1272 1263 1278 1293 1296 1302 1294 1315 1308 1270 1275 1290 1289 1284 1272 1261 1263 1274 1290 1271 1247 1260 1251 1254 1257 1259 1266 1267 1283 1295 1302 1331 1327 1340 1337 1359 1368 1378 1376 1370 1377 1351 1360 1351 1353 1375 1405 1408 1399 1386 1390 1416 1422 1438 1466 1452 1430 1462 1508 1519 1525 1509 1527 1551 1552 1554 1544 1548 1561 1552 1555 1566 1570 1568 1563 1552 1569 1593 1594 1594 1591 1595 1600 1612 1650 1799 1923 1983 2007 1984 2011 2014 1998 2002 1996 1989 1982 1944 1952 1929 1929 1961 1961 1948 1987 2055 2063 2063 2044 2045 2069 2091 2104 2105 2118 2130 2136 2135 2144 2153 2156 2162 2171 2180 2196 2188 2196 2211 2220 2225 2223 2206 2198 2203 2207 2201 2211 2230 2241 2255 2252 2257 2270 2299 2355 2374 2413 2441 2467 2487 2483 2497 2492 2503 2556 2611 2605 2651 -9999 -9999 -9999 -9999
-9999 -9999 -9999 -9999 1180 1158 1177 1188 1183 1167 1156 1146 1153 1166 1164 1178 1195 1197 1217 1224 1226 1233 1240 1280 1362 1393 1383 1342 1301 1303 1290 1285 1287 1284 1268 1259 1278 1284 1286 1298 1314 1295 1292 1287 1265 1285 1294 1279 1284 1268 1253 1270 1283 1282 1280 1253 1240 1252 1270 1269 1276 1278 1284 1273 1270 1294 1313 1306 1317 1342 1367 1375 1388 1362 1358 1365 1338 1341 1353 1367 1389 1389 1390 1383 1370 1377 1395 1408 1420 1420 1422 1448 1455 1487 1515 1501 1514 1532 1540 1546 1561 1537 1550 1548 1552 1563 1556 1547 1550 1556 1566 1564 1574 1578 1578 1572 1589 1593 1597 1622 1680 1813 1961 2026 1995 1977 1993 2008 1979 1982 1981 1963 1943 1929 1948 1929 1952 1931 1947 1969 2015 2011 1980 2032 2077 2075 2082 2095 2109 2119 2102 2089 2110 2137 2144 2151 2164 2171 2180 2190 2199 2199 2201 2208 2225 2226 2215 2204 2201 2213 2220 2223 2223 2251 2261 2259 2269 2291 2309 2358 2385 2388 2435 2458 2484 2500 2512 2528 2498 2523 2608 2637 2657 -9999 -9999 -9999 -9999
-9999 -9999 -9999 -9999 1177 1155 1167 1171 1180 1171 1154 1145 1157 1176 1177 1181 1189 1189 1189 1204 1232 1271 1356 1321 1363 1433 1339 1304 1290 1297 1274 1287 1273 1272 1259 1257 1268 1279 1279 1295 1286 1288 1270 1263 1258 1278 1274 1276 1260 1249 1261 1270 1261 1271 1262 1249 1240 1256 1272 1298 1300 1297 1311 1295 1281 1290 1295 1298 1312 1324 1336 1349 1371 1341 1354 1343 1336 1339 1355 1372 1384 1373 1363 1371 1378 1391 1391 1386 1411 1446 1464 1489 1476 1474 1489 1514 1532 1545 1556 1541 1560 1534 1544 1538 1532 1532 1534 1544 1564 1563 1575 1572 1570 1588 1599 1601 1612 1605 1610 1620 1660 1780 1986 2028 2024 1987 1981 1998 1965 1962 1968 1981 1961 1942 1938 1920 1925 1915 1918 1931 1958 1956 1972 2056 2084 2092 2105 2106 2103 2068 2018 2014 2062 2138 2142 2161 2173 2185 2188 2192 2204 2220 2218 2211 2214 2214 2210 2195 2200 2222 2232 2243 2229 2231 2261 2264 2273 2296 2328 2349 2391 2390 2430 2456 2484 2505 2500 2526 2518 2540 2574 2636 2671 -9999 -9999 -9999 -9999
-9999 -9999 -9999 -9999 1169 1149 1153 1173 1165 1166 1155 1145 1146 1156 1157 1165 1165 1178 1191 1210 1255 1339 1302 1300 1308 1314 1302 1280 1278 1276 1260 1274 1277 1255 1250 1272 1280 1290 1268 1262 1275 1295 1283 1263 1249 1259 1269 1261 1241 1248 1258 1251 1253 1256 1249 1236 1248 1259 1277 1296 1320 1338 1338 1312 1286 1282 1292 1306 1316 1315 1335 1355 1356 1331 1340 1328 1342 1347 1351 1350 1355 1355 1380 1393 1398 1396 1411 1411 1408 1432 1464 1475 1500 1489 1511 1535 1556 1552 1533 1535 1522 1534 1533 1523 1528 1540 1550 1547 1567 1583 1575 1592 1569 1576 1588 1588 1621 1630 1637 1625 1650 1805 1981 2052 2008 1981 1964 1961 1967 1936 1944 1953 1956 1951 1923 1926 1911 1913 1934 1931 1957 1978 2028 2062 2024 2029 2038 2037 2024 2005 1982 1970 2038 2079 2103 2165 2180 2169 2158 2181 2198 2218 2215 2197 2193 2192 2192 2190 2197 2207 2230 2245 2257 2252 2264 2277 2279 2303 2318 2367 2388 2398 2418 2453 2473 2501 2504 2504 2537 2553 2557 2609 2648 -9999 -9999 -9999 -9999
-9999 -9999 -9999 -9999 -9999 1148 1170 1166 1151 1148 1148 1144 1148 1154 1162 1162 1186 1210 1231 1237 1254 1259 1261 1314 1305 1270 1273 1276 1264 1273 1248 1268 1268 1258 1248 1259 1270 1285 1267 1249 1268 1271 1256 1254 1250 1254 1259 1245 1235 1240 1238 1235 1241 1233 1237 1240 1254 1275 1290 1306 1335 1361 1332 1306 1288 1305 1304 1296 1328 1322 1331 1337 1328 1319 1327 1347 1354 1343 1329 1330 1341 1346 1384 1382 1391 1398 1417 1422 1441 1437 1451 1474 1493 1515 1529 1536 1562 1569 1529 1510 1513 1518 1525 1546 1555 1562 1564 1573 1583 1603 1594 1594 1596 1579 1610 1601 1617 1630 1628 1624 1628 1724 1935 2030 2020 2004 1967 1953 1938 1948 1935 1922 1930 1954 1920 1912 1913 1923 1938 1927 1960 2006 2058 2024 1971 1963 1965 1968 1963 1962 1956 1966 2045 2066 2069 2137 2156 2129 2164 2179 2174 2201 2178 2178 2197 2193 2186 2191 2198 2220 2217 2226 2270 2265 2266 2285 2293 2302 2327 2342 2378 2415 2418 2438 2477 2495 2493 2500 2523 2566 2585 2609 -9999 -9999 -9999 -9999 -9999
-9999 -9999 -9999 -9999 -9999 -9999 1157 1145 1143 1142 1143 1145 1161 1168 1181 1191 1180 1222 1245 1228 1213 1232 1234 1282 1294 1268 1259 1275 1260 1249 1239 1254 1253 1252 1256 1273 1275 1274 1265 1245 1254 1258 1249 1235 1243 1263 1248 1238 1230 1230 1226 1227 1229 1235 1241 1244 1253 1271 1288 1318 1363 1364 1325 1307 1300 1306 1321 1303 1310 1310 1310 1314 1317 1321 1320 1327 1325 1328 1343 1346 1367 1351 1356 1368 1383 1409 1411 1439 1455 1458 1454 1471 1487 1520 1526 1522 1537 1537 1527 1516 1536 1531 1524 1538 1546 1548 1551 1570 1567 1581 1610 1607 1614 1592 1588 1585 1591 1599 1615 1619 1620 1688 1929 2031 2099 2031 1993 1967 1956 1955 1950 1949 1926 1913 1914 1934 1924 1930 1976 1947 1939 1985 1991 1995 1964 1954 1952 1951 1952 1953 1959 1966 2031 2056 2083 2099 2107 2123 2129 2146 2137 2136 2161 2176 2187 2193 2188 2191 2207 2215 2225 2229 2264 2300 2281 2289 2325 2304 2330 2363 2359 2393 2424 2433 2478 2486 2503 2501 2520 2556 2586 -9999 -9999 -9999 -9999 -9999 -9999
-9999 -9999 -9999 -9999 -9999 -9999 1143 1141 1142 1141 1152 1157 1162 1178 1198 1192 1179 1189 1191 1197 1209 1215 1240 1268 1259 1248 1250 1268 1256 1252 1231 1235 1256 1257 1241 1247 1255 1279 1288 1255 1237 1246 1230 1244 1257 1262 1248 1229 1226 1223 1234 1238 1237 1244 1246 1261 1266 1278 1305 1327 1347 1342 1325 1326 1308 1322 1339 1327 1346 1338 1344 1335 1340 1332 1341 1339 1340 1340 1367 1371 1376 1366 1367 1365 1373 1382 1418 1445 1456 1464 1473 1470 1469 1488 1491 1498 1513 1512 1504 1505 1531 1551 1543 1531 1540 1536 1547 1551 1561 1569 1596 1599 1607 1613 1610 1598 1592 1598 1616 1621 1630 1651 1911 2056 2063 2021 1985 1966 1989 1977 1958 1941 1940 1911 1946 1955 1960 1936 1974 1984 1940 1943 1947 1971 1957 1949 1948 1950 1954 1956 1959 1968 2024 2059 2070 2084 2103 2108 2110 2121 2118 2118 2137 2168 2192 2201 2200 2200 2225 2220 2220 2236 2241 2284 2303 2282 2345 2341 2320 2362 2404 2370 2449 2457 2484 2504 2521 2513 2542 2552 2600 -9999 -9999 -9999 -9999 -9999 -9999
-9999 -9999 -9999 -9999 -9999 -9999 -9999 1140 1141 1141 1145 1166 1181 1205 1222 1216 1197 1200 1219 1222 1246 1248 1274 1277 1263 1245 1240 1257 1240 1232 1235 1253 1267 1264 1238 1263 1276 1279 1278 1253 1238 1241 1224 1230 1236 1232 1226 1220 1227 1237 1249 1258 1248 1256 1263 1278 1279 1304 1316 1332 1326 1349 1347 1322 1312 1328 1344 1350 1361 1347 1370 1365 1361 1354 1369 1384 1371 1366 1384 1395 1389 1379 1389 1374 1392 1407 1432 1460 1465 1452 1463 1463 1453 1472 1475 1479 1486 1488 1486 1498 1507 1534 1553 1538 1558 1558 1559 1556 1579 1580 1589 1590 1602 1613 1624 1622 1620 1627 1632 1646 1653 1669 1795 2028 2042 1999 1988 1998 1994 1991 1967 1955 1915 1911 1956 1971 1968 1942 1963 1994 1971 1995 1978 1945 1946 1946 1949 1952 1954 1957 1967 1978 1991 2043 2081 2093 2103 2110 2121 2127 2127 2122 2129 2143 2192 2193 2224 2237 2223 2231 2221 2242 2248 2265 2328 2313 2301 2363 2370 2367 2417 2399 2433 2486 2478 2517 2533 2529 2567 2568 -9999 -9999 -9999 -9999 -9999 -9999 -9999
-9999 -9999 -9999 -9999 -9999 -9999 -9999 -9999 1140 1151 1152 1155 1192 1292 1295 1263 1225 1228 1283 1266 1307 1275 1255 1256 1252 1256 1234 1235 1246 1222 1235 1229 1243 1262 1237 1248 1255 1260 1271 1251 1232 1221 1216 1216 1216 1216 1219 1228 1239 1256 1262 1271 1268 1271 1281 1291 1305 1302 1297 1304 1309 1326 1340 1342 1328 1348 1369 1372 1392 1363 1395 1398 1384 1378 1384 1406 1397 1400 1415 1416 1415 1394 1409 1386 1407 1426 1446 1450 1452 1451 1438 1440 1450 1475 1493 1496 1497 1491 1488 1508 1514 1542 1582 1558 1575 1567 1587 1573 1592 1597 1604 1587 1595 1604 1629 1647 1648 1661 1645 1652 1668 1697 1791 2077 2067 2028 2028 2000 1967 1948 1951 1949 1908 1938 1961 1952 1973 1967 1955 1987 2007 2010 1997 1954 1946 1946 1948 1958 1965 1970 1977 1974 1977 1993 2038 2080 2114 2122 2123 2133 2131 2127 2130 2137 2168 2170 2191 2258 2266 2246 2231 2235 2275 2255 2290 2368 2331 2326 2394 2409 2417 2443 2420 2473 2509 2512 2555 2557 2565 -9999 -9999 -9999 -9999 -9999 -9999 -9999 -9999
-9999 -9999 -9999 -9999 -9999 -9999 -9999 1139 1141 1156 1167 1172 1215 1338 1278 1248 1251 1277 1286 1294 1296 1255 1228 1231 1238 1253 1237 1216 1235 1218 1215 1239 1248 1260 1241 1232 1240 1247 1260 1256 1235 1217 1216 1223 1226 1226 1225 1228 1232 1236 1245 1257 1270 1275 1276 1299 1291 1283 1293 1308 1328 1337 1342 1370 1364 1384 1395 1388 1400 1388 1405 1413 1416 1412 1411 1412 1420 1429 1428 1437 1449 1418 1421 1412 1394 1423 1438 1450 1445 1440 1458 1457 1474 1474 1493 1516 1516 1516 1506 1498 1520 1563 1596 1580 1578 1566 1595 1579 1586 1619 1607 1585 1583 1591 1622 1622 1639 1634 1654 1668 1705 1695 1746 2011 2088 2065 2017 1998 1988 1973 1937 1923 1913 1954 1938 1931 1952 1983 1972 1984 2008 2035 2038 1983 1960 1961 1964 1968 1968 1976 1978 1973 1978 1983 1991 2008 2062 2128 2126 2125 2124 2131 2139 2143 2166 2191 2180 2232 2267 2275 2260 2250 2252 2314 2282 2351 2384 2338 2382 2426 2440 2456 2427 2468 2510 2529 2557 2570 2534 -9999 -9999 -9999 -9999 -9999 -9999 -9999 -9999
-9999 -9999 -9999 -9999 -9999 -9999 -9999 1136 1143 1149 1161 1214 1300 1336 1251 1226 1240 1254 1247 1272 1255 1258 1242 1223 1234 1244 1224 1209 1212 1219 1224 1243 1253 1261 1232 1245 1260 1255 1256 1242 1232 1217 1218 1243 1252 1255 1247 1251 1247 1253 1242 1253 1251 1257 1262 1266 1278 1294 1322 1332 1351 1370 1365 1378 1381 1376 1370 1392 1394 1390 1384 1390 1414 1409 1420 1428 1423 1441 1452 1450 1457 1460 1462 1436 1420 1421 1430 1429 1434 1451 1479 1495 1517 1501 1503 1510 1529 1540 1522 1516 1519 1551 1579 1597 1591 1574 1559 1545 1579 1613 1614 1600 1605 1611 1602 1613 1613 1632 1684 1725 1673 1655 1707 1892 2132 2052 2018 1970 1964 1966 1938 1903 1944 1932 1921 1943 1951 1977 1989 2007 2023 2020 2035 2017 1982 1966 1958 1959 1963 1985 1971 1973 1985 1991 1997 2008 2023 2098 2103 2120 2128 2133 2153 2157 2163 2216 2239 2209 2244 2292 2294 2305 2250 2310 2342 2330 2390 2387 2363 2403 2440 2468 2461 2450 2483 2524 2516 2503 2504 -9999 -9999 -9999 -9999 -9999 -9999 -9999 -9999
-9999 -9999 -9999 -9999 -9999 -9999 -9999 1137 1153 1161 1194 1292 1289 1281 1247 1224 1229 1234 1227 1239 1235 1234 1246 1229 1218 1228 1212 1199 1210 1228 1249 1237 1254 1241 1220 1233 1241 1260 1258 1234 1220 1213 1230 1243 1254 1275 1269 1261 1258 1266 1252 1265 1257 1270 1286 1276 1290 1315 1332 1348 1356 1358 1357 1348 1352 1359 1373 1381 1384 1382 1386 1385 1404 1388 1409 1425 1412 1427 1432 1466 1483 1486 1491 1467 1455 1468 1472 1439 1438 1458 1467 1493 1520 1521 1534 1533 1537 1559 1552 1535 1550 1547 1575 1594 1576 1560 1531 1524 1549 1583 1597 1588 1582 1651 1621 1614 1615 1624 1649 1653 1648 1681 1748 1871 2078 1991 1951 1950 1924 1958 1941 1904 1932 1906 1905 1904 1908 1932 1930 1944 1955 1968 1980 2015 2010 1974 1955 1972 1965 1966 1976 2001 1998 2008 2047 2074 2095 2093 2102 2130 2140 2148 2154 2167 2212 2199 2232 2268 2248 2258 2284 2323 2281 2305 2371 2370 2360 2403 2379 2419 2431 2453 2472 2473 2458 2468 2480 2508 2533 2543 -9999 -9999 -9999 -9999 -9999 -9999 -9999
-9999 -9999 -9999 -9999 -9999 -9999 -9999 1144 1148 1164 1232 1333 1251 1249 1228 1211 1229 1212 1204 1210 1216 1222 1242 1235 1210 1214 1213 1197 1221 1247 1240 1238 1243 1225 1214 1238 1240 1258 1258 1240 1218 1212 1231 1243 1250 1270 1288 1286 1287 1270 1264 1285 1270 1281 1298 1302 1308 1308 1321 1338 1334 1334 1335 1349 1364 1383 1372 1354 1365 1365 1372 1370 1376 1382 1392 1406 1397 1416 1430 1451 1465 1488 1504 1501 1489 1486 1466 1454 1458 1452 1476 1485 1487 1496 1511 1530 1550 1570 1575 1562 1573 1563 1575 1569 1551 1540 1512 1512 1550 1574 1580 1557 1556 1564 1562 1565 1576 1604 1632 1662 1686 1697 1762 1902 2012 1948 1902 1928 1909 1907 1928 1909 1901 1918 1949 1927 1929 1922 1925 1931 1952 1954 1944 1985 1995 1965 1961 1975 1982 1983 1974 1989 2030 2032 2061 2088 2100 2104 2102 2106 2120 2153 2212 2190 2193 2232 2224 2290 2287 2303 2297 2350 2350 2288 2355 2395 2393 2392 2418 2403 2437 2452 2458 2476 2476 2468 2477 2499 2541 2573 -9999 -9999 -9999 -9999 -9999 -9999 -9999
-9999 -9999 -9999 -9999 -9999 -9999 -9999 1165 1171 1168 1220 1230 1223 1243 1233 1210 1214 1227 1203 1191 1198 1218 1231 1218 1203 1217 1207 1197 1223 1243 1219 1241 1255 1235 1207 1213 1232 1230 1227 1212 1207 1216 1227 1243 1253 1265 1284 1295 1312 1305 1300 1305 1306 1301 1306 1299 1292 1309 1324 1320 1315 1328 1328 1346 1353 1360 1356 1367 1379 1377 1368 1384 1385 1387 1398 1385 1396 1414 1437 1456 1498 1504 1504 1483 1494 1510 1501 1474 1468 1484 1485 1508 1516 1523 1531 1534 1536 1549 1578 1575 1560 1559 1540 1533 1519 1509 1490 1511 1542 1545 1552 1548 1541 1536 1554 1584 1593 1617 1627 1654 1669 1717 1800 1887 1985 1973 1886 1888 1902 1878 1916 1903 1903 1934 1954 1961 1972 1978 1979 1992 2012 1995 1952 1943 1961 1990 1994 1991 1983 1977 1988 1986 2012 2022 2036 2082 2097 2108 2089 2097 2113 2122 2154 2191 2209 2246 2267 2279 2323 2342 2345 2326 2365 2326 2331 2395 2422 2393 2429 2447 2421 2433 2439 2462 2486 2469 2487 2517 2559 2572 -9999 -9999 -9999 -9999 -9999 -9999 -9999
-9999 -9999 -9999 -9999 -9999 -9999 1155 1160 1176 1204 1272 1216 1227 1223 1206 1202 1201 1230 1202 1187 1202 1217 1231 1222 1198 1214 1195 1203 1235 1225 1211 1232 1220 1214 1192 1194 1205 1205 1202 1214 1229 1244 1238 1242 1246 1258 1282 1303 1297 1301 1304 1291 1305 1311 1295 1279 1302 1315 1324 1339 1323 1348 1347 1344 1340 1348 1351 1379 1393 1402 1388 1385 1409 1424 1417 1391 1406 1433 1459 1485 1489 1493 1480 1509 1510 1502 1496 1494 1504 1517 1493 1487 1497 1541 1540 1539 1562 1578 1578 1546 1531 1525 1517 1502 1490 1479 1514 1546 1504 1497 1522 1547 1549 1570 1556 1561 1561 1609 1629 1659 1695 1732 1829 1847 1934 1898 1867 1851 1875 1875 1921 1907 1904 1937 1977 1980 1969 1994 1982 2009 2023 2001 1966 1980 1959 1979 1999 1974 1956 1961 1976 1985 2020 2033 2021 2066 2076 2081 2082 2089 2093 2091 2106 2128 2159 2237 2311 2320 2353 2361 2367 2341 2369 2385 2335 2394 2434 2419 2424 2475 2455 2432 2438 2464 2470 2467 2477 2500 2534 2580 -9999 -9999 -9999 -9999 -9999 -9999 -9999
-9999 -9999 -9999 -9999 -9999 -9999 1149 1160 1188 1244 1289 1202 1216 1230 1220 1204 1185 1189 1183 1193 1203 1202 1215 1228 1202 1202 1192 1203 1226 1205 1206 1225 1200 1184 1187 1189 1193 1218 1226 1236 1255 1268 1259 1260 1261 1289 1299 1279 1284 1299 1292 1268 1275 1286 1273 1278 1298 1306 1333 1352 1351 1347 1372 1376 1365 1362 1360 1363 1370 1394 1416 1421 1403 1437 1413 1413 1410 1421 1470 1488 1476 1465 1480 1498 1506 1499 1467 1487 1507 1501 1495 1485 1510 1504 1507 1526 1542 1559 1545 1524 1503 1499 1497 1488 1467 1494 1498 1496 1481 1510 1561 1586 1590 1594 1595 1577 1598 1645 1680 1699 1724 1751 1785 1821 1881 1866 1840 1860 1850 1890 1916 1890 1904 1923 1959 1973 1966 1973 1978 2001 2032 1993 1968 1992 1974 1979 2001 1975 1951 1980 1965 1979 2003 2018 1990 2001 2003 2061 2085 2061 2055 2078 2112 2140 2160 2205 2246 2272 2353 2387 2383 2376 2381 2413 2360 2361 2436 2445 2429 2457 2483 2444 2433 2440 2440 2459 2486 2505 2551 2599 -9999 -9999 -9999 -9999 -9999 -9999 -9999
-9999 -9999 -9999 -9999 -9999 -9999 1153 1167 1187 1243 1262 1194 1212 1250 1230 1208 1203 1213 1190 1178 1186 1208 1226 1228 1205 1185 1183 1204 1207 1188 1214 1230 1200 1185 1201 1206 1204 1226 1249 1256 1249 1247 1270 1245 1257 1272 1275 1256 1256 1268 1261 1254 1259 1270 1276 1306 1317 1309 1323 1339 1373 1371 1390 1407 1392 1382 1378 1381 1374 1399 1417 1416 1424 1447 1452 1431 1452 1455 1472 1468 1471 1491 1487 1463 1463 1456 1456 1468 1464 1465 1476 1478 1499 1479 1482 1492 1522 1516 1515 1485 1471 1472 1475 1471 1488 1490 1498 1492 1505 1541 1583 1605 1597 1617 1628 1587 1632 1667 1693 1714 1746 1762 1794 1824 1839 1847 1821 1836 1866 1901 1916 1894 1917 1924 1965 1960 1967 1957 1991 1994 2041 2018 1991 2010 1983 1987 2002 1963 1949 1968 1952 1971 1973 1990 1980 1986 1985 2013 2055 2032 2050 2094 2128 2148 2156 2165 2175 2197 2245 2297 2368 2402 2415 2432 2411 2400 2424 2466 2462 2440 2488 2466 2443 2447 2452 2456 2466 2521 2577 2624 -9999 -9999 -9999 -9999 -9999 -9999 -9999
-9999 -9999 -9999 -9999 -9999 -9999 1166 1176 1196 1259 1233 1196 1233 1259 1236 1227 1246 1237 1203 1173 1197 1217 1222 1222 1212 1189 1179 1182 1171 1174 1206 1203 1184 1181 1213 1233 1235 1222 1236 1230 1228 1232 1251 1231 1241 1241 1237 1235 1254 1250 1258 1277 1271 1288 1299 1309 1330 1332 1342 1347 1372 1386 1390 1393 1404 1412 1401 1408 1380 1381 1395 1433 1456 1454 1452 1446 1462 1489 1467 1461 1479 1478 1463 1441 1437 1461 1468 1432 1432 1437 1433 1436 1449 1447 1469 1475 1492 1486 1511 1463 1498 1509 1519 1508 1523 1540 1544 1552 1566 1574 1615 1609 1611 1643 1619 1642 1684 1711 1724 1721 1741 1765 1776 1800 1820 1824 1813 1827 1854 1878 1912 1895 1893 1919 1957 1942 1943 1964 1963 1978 2031 2046 2022 2010 1998 1998 2015 1977 1939 1942 1959 1952 1957 1966 1966 1972 1984 1989 1998 2027 2067 2105 2147 2198 2185 2197 2207 2228 2236 2345 2341 2353 2419 2451 2438 2436 2409 2454 2470 2454 2456 2497 2456 2458 2464 2493 2493 2544 2623 -9999 -9999 -9999 -9999 -9999 -9999 -9999 -9999
-9999 -9999 -9999 -9999 -9999 -9999 1159 1163 1186 1311 1200 1190 1214 1230 1217 1229 1283 1229 1186 1164 1193 1206 1196 1191 1195 1177 1170 1164 1174 1172 1177 1177 1174 1191 1222 1231 1228 1210 1233 1213 1218 1221 1233 1216 1217 1222 1240 1258 1276 1272 1278 1302 1290 1284 1283 1302 1316 1325 1331 1338 1373 1372 1358 1369 1403 1413 1409 1425 1395 1419 1409 1421 1451 1456 1442 1440 1458 1460 1449 1452 1468 1446 1431 1422 1434 1435 1434 1442 1471 1468 1472 1476 1472 1436 1429 1441 1455 1444 1452 1468 1488 1512 1515 1520 1540 1558 1589 1593 1603 1599 1648 1628 1630 1651 1665 1699 1728 1740 1742 1730 1739 1757 1776 1781 1797 1802 1815 1835 1870 1886 1916 1899 1878 1929 1943 1932 1954 1944 1936 1966 1986 2001 2019 2003 1993 1983 2006 1977 1930 1940 1945 1948 1957 1958 1975 1994 2009 2021 2005 2000 2026 2056 2077 2131 2159 2185 2242 2327 2259 2305 2409 2401 2395 2425 2463 2445 2447 2429 2471 2471 2455 2484 2491 2467 2507 2533 2517 2549 2629 -9999 -9999 -9999 -9999 -9999 -9999 -9999 -9999
-9999 -9999 -9999 -9999 -9999 -9999 1148 1175 1196 1214 1171 1197 1224 1218 1194 1220 1280 1208 1183 1157 1172 1185 1172 1168 1164 1159 1164 1173 1196 1200 1182 1184 1186 1183 1201 1200 1201 1209 1216 1200 1201 1206 1208 1211 1232 1245 1258 1270 1269 1294 1291 1313 1315 1307 1299 1293 1292 1309 1320 1338 1336 1338 1347 1355 1374 1373 1394 1402 1410 1410 1433 1444 1468 1472 1447 1434 1441 1428 1422 1441 1437 1422 1431 1456 1469 1496 1474 1448 1475 1505 1541 1530 1493 1463 1465 1463 1474 1465 1476 1495 1502 1518 1523 1547 1544 1540 1559 1585 1622 1627 1656 1671 1658 1641 1668 1729 1762 1768 1758 1766 1767 1783 1802 1795 1807 1823 1857 1860 1895 1909 1900 1880 1893 1922 1942 1928 1942 1928 1955 2000 1997 2001 2037 2024 1965 1963 1957 1940 1943 1957 1965 1977 1999 1986 1964 1976 1976 1992 2030 2038 2019 2024 2057 2110 2159 2205 2236 2356 2311 2334 2374 2433 2457 2441 2450 2472 2454 2436 2475 2498 2473 2491 2511 2484 2557 2539 2573 2583 2622 -9999 -9999 -9999 -9999 -9999 -9999 -9999 -9999
-9999 -9999 -9999 -9999 -9999 1141 1209 1195 1163 1152 1171 1194 1190 1180 1185 1187 1205 1161 1169 1152 1158 1161 1156 1155 1157 1164 1186 1203 1219 1234 1220 1210 1198 1187 1186 1192 1197 1197 1205 1200 1221 1234 1224 1219 1218 1224 1236 1233 1262 1276 1267 1290 1307 1326 1323 1324 1307 1305 1317 1328 1352 1365 1384 1369 1378 1369 1375 1394 1424 1443 1444 1457 1459 1477 1463 1429 1423 1415 1420 1419 1428 1432 1436 1444 1485 1542 1489 1481 1466 1480 1520 1535 1521 1499 1489 1502 1494 1499 1513 1530 1531 1543 1548 1562 1557 1551 1567 1571 1610 1640 1661 1690 1672 1659 1707 1758 1787 1790 1762 1762 1787 1808 1834 1800 1821 1810 1825 1827 1855 1873 1872 1864 1897 1933 1944 1923 1915 1908 1927 1968 1976 1956 2005 2000 1946 1943 1926 1932 1961 1984 1959 1962 1980 1999 1983 2051 2051 2034 2030 2009 2030 2052 2056 2069 2126 2201 2299 2415 2448 2411 2389 2433 2464 2503 2470 2467 2479 2457 2460 2508 2508 2511 2524 2526 2534 2538 2620 2613 2646 2637 -9999 -9999 -9999 -9999 -9999 -9999 -9999
-9999 -9999 -9999 -9999 -9999 1185 1238 1164 1140 1148 1159 1148 1146 1154 1224 1178 1152 1152 1192 1158 1152 1156 1155 1160 1160 1164 1178 1210 1223 1242 1247 1230 1225 1210 1211 1218 1216 1230 1238 1217 1213 1235 1237 1248 1243 1230 1232 1230 1241 1259 1285 1314 1310 1306 1316 1335 1334 1337 1347 1334 1366 1415 1418 1413 1420 1387 1402 1400 1424 1446 1454 1428 1453 1463 1456 1414 1410 1431 1445 1453 1471 1456 1465 1460 1461 1496 1519 1511 1492 1489 1502 1518 1540 1550 1526 1528 1532 1542 1544 1555 1570 1569 1585 1572 1596 1588 1602 1612 1627 1669 1688 1696 1700 1710 1742 1782 1814 1810 1771 1788 1782 1815 1861 1820 1830 1843 1829 1846 1848 1838 1868 1911 1903 1924 1924 1904 1908 1933 1949 1922 1931 1918 1945 1938 1929 1942 1963 1972 1983 2016 2005 2002 1986 1983 2002 2003 2043 2118 2117 2049 2022 2040 2075 2109 2190 2276 2326 2406 2490 2466 2444 2442 2460 2491 2510 2493 2476 2495 2492 2486 2524 2533 2532 2564 2633 2606 2593 2619 2645 2658 -9999 -9999 -9999 -9999 -9999 -9999 -9999
-9999 -9999 -9999 -9999 -9999 1231 1155 1145 1143 1145 1145 1145 1146 1150 1150 1147 1149 1151 1179 1152 1151 1155 1168 1186 1190 1195 1201 1215 1210 1221 1241 1258 1261 1248 1233 1244 1222 1242 1260 1240 1222 1232 1252 1268 1261 1263 1269 1253 1243 1261 1284 1289 1292 1310 1325 1331 1341 1363 1362 1366 1361 1378 1403 1429 1428 1419 1419 1403 1418 1439 1455 1429 1409 1413 1417 1410 1432 1466 1456 1473 1470 1446 1460 1479 1467 1499 1508 1540 1530 1503 1510 1540 1557 1557 1557 1555 1572 1597 1595 1592 1609 1619 1627 1627 1624 1616 1632 1667 1691 1711 1714 1720 1729 1774 1826 1809 1831 1802 1786 1796 1816 1819 1859 1843 1846 1863 1845 1828 1840 1864 1887 1928 1932 1926 1904 1920 1928 1941 1962 1941 1958 1935 1942 1948 2010 2044 1986 1978 1978 1981 1989 2014 2016 2003 2006 2033 2026 2052 2137 2159 2073 2042 2048 2118 2291 2388 2402 2388 2466 2496 2494 2484 2484 2516 2519 2544 2506 2514 2519 2510 2515 2568 2545 2625 2728 2703 2596 2660 2632 2676 -9999 -9999 -9999 -9999 -9999 -9999 -9999
-9999 -9999 -9999 -9999 -9999 1161 1154 1143 1143 1144 1145 1145 1146 1146 1147 1148 1148 1150 1150 1149 1152 1172 1202 1221 1223 1223 1211 1209 1220 1227 1224 1245 1267 1270 1265 1261 1242 1263 1271 1245 1244 1231 1257 1291 1295 1297 1303 1274 1264 1256 1277 1283 1288 1298 1301 1311 1316 1353 1391 1408 1392 1384 1406 1440 1445 1429 1436 1414 1420 1432 1453 1431 1407 1424 1429 1446 1450 1470 1477 1495 1494 1473 1488 1497 1496 1512 1503 1547 1549 1536 1526 1521 1535 1581 1594 1588 1590 1599 1612 1626 1626 1627 1638 1656 1655 1655 1647 1664 1679 1686 1697 1721 1731 1767 1826 1825 1842 1829 1799 1824 1844 1844 1891 1880 1916 1889 1874 1860 1837 1835 1841 1868 1878 1891 1918 1950 1943 1972 1959 1956 -9999 -9999 2008 1994 2046 2046 2023 1998 2010 2005 2020 1993 2001 2026 2038 2030 2044 2089 2164 2234 2156 2152 2104 2179 2298 2403 2469 2453 2447 2467 2509 2515 2513 2530 2570 2555 2558 2514 2547 2555 2544 2588 2606 2618 2749 2706 2623 2678 2641 2675 -9999 -9999 -9999 -9999 -9999 -9999 -9999
-9999 -9999 -9999 1133 1142 1164 1152 1142 1143 1144 1144 1145 1146 1146 1147 1146 1148 1150 1150 1151 1162 1199 1235 1226 1226 1205 1212 1229 1230 1238 1239 1236 1242 1250 1260 1272 1268 1284 1286 1271 1278 1245 1251 1261 1271 1302 1323 1304 1289 1263 1276 1292 1312 1324 1324 1346 1338 1346 1376 1406 1403 1410 1421 1438 1449 1433 1455 1447 1445 1441 1444 1410 1411 1437 1455 1467 1476 1485 1477 1502 1483 1488 1503 1480 1498 1496 1509 1520 1551 1570 1563 1553 1564 1581 1573 1570 1574 1598 1599 1605 1607 1611 1641 1661 1667 1687 1666 1668 1680 1702 1701 1706 1730 1769 1800 1799 1817 1837 1820 1835 1866 1894 1911 1931 1964 1934 1914 1881 1865 1875 1866 1868 1906 1911 1924 1947 1985 1976 -9999 -9999 -9999 -9999 -9999 -9999 2006 2054 2088 2044 2013 2035 2042 2012 2022 2020 2060 2094 2078 2058 2094 2119 2220 2278 2247 2221 2343 2390 2440 2520 2534 2529 2503 2540 2526 2563 2577 2593 2589 2551 2540 2593 2569 2579 2632 2623 2679 2676 2670 2693 2664 2695 -9999 -9999 -9999 -9999 -9999 -9999 -9999
-9999 1133 1136 1138 1170 1155 1142 1142 1142 1142 1143 1146 1145 1144 1145 1146 1146 1149 1152 1152 1157 1182 1199 1204 1203 1197 1212 1216 1231 1235 1239 1235 1226 1227 1238 1248 1260 1282 1294 1294 1294 1257 1273 1291 1292 1289 1315 1308 1294 1274 1294 1303 1323 1348 1353 1374 1365 1380 1406 1421 1422 1414 1414 1417 1440 1445 1459 1458 1449 1435 1417 1412 1431 1449 1451 1440 1436 1442 1445 1453 1458 1460 1466 1471 1484 1479 1482 1493 1534 1537 1524 1525 1532 1553 1573 1601 1590 1603 1598 1605 1621 1638 1635 1650 1656 1684 1692 1706 1711 1703 1734 1732 1751 1763 1781 1787 1797 1845 1869 1895 1897 1915 1925 1965 1969 1967 1937 1929 1909 1914 1912 1868 1903 1937 1942 1960 -9999 -9999 -9999 -9999 -9999 -9999 -9999 -9999 -9999 -9999 2117 -9999 -9999 -9999 2011 2040 2022 2033 2064 2102 2112 2125 2083 2077 2135 2227 2311 2268 2311 2434 2476 2526 2579 2555 2564 -9999 -9999 -9999 -9999 -9999 -9999 -9999 2597 2620 2645 2611 2610 2652 2650 2678 2705 2706 2691 2716 -9999 -9999 -9999 -9999 -9999 -9999 -9999
-9999 -9999 1191 1158 1183 1146 1143 1143 1144 1145 1145 1144 1144 1144 1145 1145 1146 1149 1150 1150 1152 1170 1197 1179 1182 1196 1206 1211 1218 1222 1227 1237 1239 1242 1231 1234 1246 1265 1282 1283 1299 1277 1261 1280 1305 1307 1306 1331 1316 1275 1288 1325 1351 1373 1380 1382 1405 1411 1415 1433 1414 1391 1398 1420 1449 1465 1449 1423 1415 1437 1414 1417 1439 1423 1423 1427 1452 1469 1473 1486 1493 1484 1499 1492 1497 1505 1499 1482 1495 1507 1534 1562 1575 1559 1577 1589 1597 1621 1630 1609 1627 1654 1674 1668 1690 1671 1701 1726 1729 1714 1734 1746 1749 1763 1805 1834 1830 1825 1852 1894 1945 1967 1958 1980 1956 1976 1958 1963 1939 1919 1897 1901 1900 1916 1935 -9999 -9999 -9999 -9999 -9999 -9999 -9999 -9999 -9999 -9999 -9999 -9999 -9999 -9999 -9999 -9999 2015 2036 2040 2035 2055 2056 2076 2079 2095 2100 2134 2217 2339 2402 2401 2479 2529 -9999 -9999 -9999 -9999 -9999 -9999 -9999 -9999 -9999 -9999 -9999 -9999 -9999 -9999 -9999 -9999 -9999 2682 2718 2733 2734 2737 -9999 -9999 -9999 -9999 -9999 -9999 -9999
-9999 -9999 1163 1144 1142 1141 1141 1144 1144 1143 1143 1144 1146 1146 1146 1146 1148 1149 1148 1148 1150 1165 1183 1167 1195 1211 1226 1234 1231 1231 1234 1224 1223 1237 1245 1237 1241 1258 1275 1276 1294 1276 1277 1277 1289 1302 1315 1336 1321 1302 1286 1317 1355 1372 1355 1376 1390 1375 1372 1404 1428 1397 1391 1409 1421 1440 1412 1393 1381 1394 1397 1399 1405 1426 1444 1467 1448 1483 1497 1519 1532 1509 1535 1507 1509 1525 1511 1489 1522 1543 1570 1582 1605 1586 1578 1589 1595 1610 1634 1631 1666 1668 1683 1676 1706 1694 1690 1735 1741 1733 1750 1765 1772 1782 1814 1836 1873 1843 1859 1877 1919 1972 1986 2016 1996 2016 1975 1979 1941 1949 1925 1950 1928 1938 1939 -9999 -9999 -9999 -9999 -9999 -9999 -9999 -9999 -9999 -9999 -9999 -9999 -9999 -9999 -9999 -9999 -9999 2119 2108 2082 2087 2079 2093 2115 2105 2126 2184 2190 2295 2467 2443 -9999 -9999 -9999 -9999 -9999 -9999 -9999 -9999 -9999 -9999 -9999 -9999 -9999 -9999 -9999 -9999 -9999 -9999 -9999 -9999 -9999 -9999 -9999 -9999 -9999 -9999 -9999 -9999 -9999 -9999 -9999
-9999 -9999 1140 1142 1142 1141 1141 1142 1142 1144 1144 1145 1144 1145 1145 1147 1149 1147 1147 1148 1153 1157 1161 1169 1179 1163 1180 1181 1182 1176 1186 1205 1229 1239 1236 1238 1241 1264 1309 1310 1297 1279 1297 1298 1305 1324 1340 1350 1343 1315 1315 1302 1332 1334 1344 1356 1354 1371 1390 1405 1430 1420 1382 1405 1418 1410 1401 1372 1355 1377 1413 1424 1440 1421 1454 1483 1444 1458 1494 1530 1539 1537 1555 1527 1529 1545 1528 1504 1525 1566 1589 1596 1612 1611 1617 1603 1615 1627 1664 1644 1670 1708 1691 1698 1720 1729 1705 1720 -9999 -9999 -9999 -9999 1795 1850 1842 1842 1861 1846 1865 1869 1895 1924 1959 2002 2018 2025 2021 2012 1983 1958 -9999 -9999 -9999 -9999 -9999 -9999 -9999 -9999 -9999 -9999 -9999 -9999 -9999 -9999 -9999 -9999 -9999 -9999 -9999 -9999 -9999 -9999 -9999 -9999 -9999 -9999 -9999 2139 -9999 -9999 2151 2212 2318 2348 2429 2489 -9999 -9999 -9999 -9999 -9999 -9999 -9999 -9999 -9999 -9999 -9999 -9999 -9999 -9999 -9999 -9999 -9999 -9999 -9999 -9999 -9999 -9999 -9999 -9999 -9999 -9999 -9999 -9999 -9999 -9999 -9999
-9999 -9999 -9999 1141 1142 1140 1141 1143 1143 1143 1143 1144 1145 1146 1146 1146 1147 1147 1147 1148 1148 1155 1165 1156 1149 1147 1148 1150 1159 1163 1181 1192 1202 1215 1230 1239 1241 1260 1284 1284 1299 1285 1293 1321 1325 1331 1337 1358 1362 1357 1349 1330 1316 1318 1318 1332 1347 1359 1381 1411 1428 1405 1360 1385 1411 1373 1365 1392 1344 1379 1413 1411 1436 1449 1472 1483 1455 1437 1491 1515 1503 1504 1523 1518 1505 1542 1554 1536 1517 1552 1565 1583 1592 1610 1632 1632 1657 1649 1689 1662 1656 -9999 -9999 -9999 -9999 -9999 -9999 -9999 -9999 -9999 -9999 -9999 -9999 1847 1875 1877 1871 1870 1872 1881 1921 1953 1980 1997 -9999 -9999 -9999 -9999 2035 -9999 -9999 -9999 -9999 -9999 -9999 -9999 -9999 -9999 -9999 -9999 -9999 -9999 -9999 -9999 -9999 -9999 -9999 -9999 -9999 -9999 -9999 -9999 -9999 -9999 -9999 -9999 -9999 -9999 -9999 -9999 -9999 -9999 -9999 -9999 2449 -9999 -9999 -9999 -9999 -9999 -9999 -9999 -9999 -9999 -9999 -9999 -9999 -9999 -9999 -9999 -9999 -9999 -9999 -9999 -9999 -9999 -9999 -9999 -9999 -9999 -9999 -9999 -9999 -9999 -9999 -9999 -9999
-9999 -9999 -9999 -9999 1141 1142 1142 1142 1143 1143 1143 1144 1145 1145 1145 1147 1147 1147 1147 1147 1148 1148 1148 1152 1147 1147 1147 1148 1159 1184 1225 1241 1265 1267 1261 1249 1248 1266 1283 1304 1316 1312 1305 1298 1312 1317 1328 1335 1349 1366 1371 1367 1347 1357 1355 1359 1388 1383 1399 1422 1404 1391 1351 1351 1354 1363 1344 1354 1339 1371 1400 1422 1431 1434 1465 1516 1484 1447 1456 1464 1465 1494 1499 1499 1505 1536 1559 1566 1536 1576 1592 1581 1612 1626 1641 1663 1673 1660 -9999 -9999 -9999 -9999 -9999 -9999 -9999 -9999 -9999 -9999 -9999 -9999 -9999 -9999 -9999 -9999 -9999 -9999 -9999 -9999 -9999 -9999 -9999 -9999 -9999 -9999 -9999 -9999 -9999 -9999 -9999 -9999 -9999 -9999 -9999 -9999 -9999 -9999 -9999 -9999 -9999 -9999 -9999 -9999 -9999 -9999 -9999 -9999 -9999 -9999 -9999 -9999 -9999 -9999 -9999 -9999 -9999 -9999 -9999 -9999 -9999 -9999 -9999 -9999 -9999 -9999 -9999 -9999 -9999 -9999 -9999 -9999 -9999 -9999 -9999 -9999 -9999 -9999 -9999 -9999 -9999 -9999 -9999 -9999 -9999 -9999 -9999 -9999 -9999 -9999 -9999 -9999 -9999 -9999 -9999 -9999 -9999 -9999 -9999
-9999 -9999 -9999 -9999 -9999 1142 1142 1143 1143 1143 1143 1144 1144 1144 1147 1146 1146 1147 1148 1148 1149 1148 1148 1148 1148 1147 1152 1158 1188 1216 1236 1207 1200 1214 1223 1231 1259 1285 1304 1301 1314 1317 1323 1320 1314 1326 1346 1367 1384 1388 1397 1394 1391 1390 1394 1399 1416 1417 1427 1408 1387 1366 1341 1309 1302 1323 1342 1351 1368 1409 1424 1454 1475 1477 1468 1505 1489 1461 1442 1467 1485 1493 1505 1500 1493 1502 1522 1544 1555 1579 1606 1610 1610 -9999 -9999 -9999 -9999 -9999 -9999 -9999 -9999 -9999 -9999 -9999 -9999 -9999 -9999 -9999 -9999 -9999 -9999 -9999 -9999 -9999 -9999 -9999 -9999 -9999 -9999 -9999 -9999 -9999 -9999 -9999 -9999 -9999 -9999 -9999 -9999 -9999 -9999 -9999 -9999 -9999 -9999 -9999 -9999 -9999 -9999 -9999 -9999 -9999 -9999 -9999 -9999 -9999 -9999 -9999 -9999 -9999 -9999 -9999 -9999 -9999 -9999 -9999 -9999 -9999 -9999 -9999 -9999 -9999 -9999 -9999 -9999 -9999 -9999 -9999 -9999 -9999 -9999 -9999 -9999 -9999 -9999 -9999 -9999 -9999 -9999 -9999 -9999 -9999 -9999 -9999 -9999 -9999 -9999 -9999 -9999 -9999 -9999 -9999 -9999 -9999 -9999 -9999 -9999
-9999 -9999 -9999 -9999 -9999 1141 1141 1142 1143 1143 1144 1145 1145 1145 1145 1146 1147 1149 1150 1150 1150 1150 1150 1150 1149 1149 1148 1152 1179 1186 1171 1176 1194 1217 1238 1253 1269 1278 1261 1270 1285 1295 1320 1338 1326 1353 1349 1353 1372 1393 1416 1408 1373 1373 1395 1400 1388 1417 1427 1422 1388 1369 1343 1296 1350 1390 1414 1437 1435 1450 1462 1486 1505 1523 1521 1503 1477 1461 1455 1496 1515 1527 1526 1530 1509 1514 1529 1562 1589 1597 1599 1636 -9999 -9999 -9999 -9999 -9999 -9999 -9999 -9999 -9999 -9999 -9999 -9999 -9999 -9999 -9999 -9999 -9999 -9999 -9999 -9999 -9999 -9999 -9999 -9999 -9999 -9999 -9999 -9999 -9999 -9999 -9999 -9999 -9999 -9999 -9999 -9999 -9999 -9999 -9999 -9999 -9999 -9999 -9999 -9999 -9999 -9999 -9999 -9999 -9999 -9999 -9999 -9999 -9999 -9999 -9999 -9999 -9999 -9999 -9999 -9999 -9999 -9999 -9999 -9999 -9999 -9999 -9999 -9999 -9999 -9999 -9999 -9999 -9999 -9999 -9999 -9999 -9999 -9999 -9999 -9999 -9999 -9999 -9999 -9999 -9999 -9999 -9999 -9999 -9999 -9999 -9999 -9999 -9999 -9999 -9999 -9999 -9999 -9999 -9999 -9999 -9999 -9999 -9999 -9999 -9999
-9999 -9999 -9999 -9999 -9999 -9999 1141 1141 1141 1143 1143 1144 1144 1145 1146 1146 1148 1151 1151 1151 1151 1152 1151 1149 1153 1152 1147 1148 1162 1165 1170 1196 1214 1244 1271 1271 1244 1234 1237 1256 1273 1298 1327 1356 1343 1344 1361 1353 1365 1375 1413 1407 1363 1369 1383 1364 1370 1361 1360 1408 1372 1332 1296 1304 1334 1365 1390 1407 1420 1432 1451 1466 1481 1504 -9999 1488 1478 1476 1483 1521 1537 1551 1558 1547 1550 1557 1564 1578 1603 1615 1637 -9999 -9999 -9999 -9999 -9999 -9999 -9999 -9999 -9999 -9999 -9999 -9999 -9999 -9999 -9999 -9999 -9999 -9999 -9999 -9999 -9999 -9999 -9999 -9999 -9999 -9999 -9999 -9999 -9999 -9999 -9999 -9999 -9999 -9999 -9999 -9999 -9999 -9999 -9999 -9999 -9999 -9999 -9999 -9999 -9999 -9999 -9999 -9999 -9999 -9999 -9999 -9999 -9999 -9999 -9999 -9999 -9999 -9999 -9999 -9999 -9999 -9999 -9999 -9999 -9999 -9999 -9999 -9999 -9999 -9999 -9999 -9999 -9999 -9999 -9999 -9999 -9999 -9999 -9999 -9999 -9999 -9999 -9999 -9999 -9999 -9999 -9999 -9999 -9999 -9999 -9999 -9999 -9999 -9999 -9999 -9999 -9999 -9999 -9999 -9999 -9999 -9999 -9999 -9999 -9999 -9999
-9999 -9999 -9999 -9999 -9999 -9999 1141 1142 1142 1142 1143 1144 1144 1145 1145 1147 1148 1150 1151 1152 1152 1151 1151 1150 1150 1157 1156 1150 1155 1169 1183 1206 1224 1250 1262 1240 1221 1238 1264 1286 1302 1325 1337 1367 1353 1316 1328 1313 1334 1351 1373 1356 1326 1344 1338 1339 1356 1356 1304 1323 1318 1302 1268 1296 1315 1357 1374 1385 1417 1454 1462 -9999 -9999 -9999 -9999 -9999 1504 1495 1506 1536 1562 1566 1560 1553 1568 1579 1582 1597 1623 1644 -9999 -9999 -9999 -9999 -9999 -9999 -9999 -9999 -9999 -9999 -9999 -9999 -9999 -9999 -9999 -9999 -9999 -9999 -9999 -9999 -9999 -9999 -9999 -9999 -9999 -9999 -9999 -9999 -9999 -9999 -9999 -9999 -9999 -9999 -9999 -9999 -9999 -9999 -9999 -9999 -9999 -9999 -9999 -9999 -9999 -9999 -9999 -9999 -9999 -9999 -9999 -9999 -9999 -9999 -9999 -9999 -9999 -9999 -9999 -9999 -9999 -9999 -9999 -9999 -9999 -9999 -9999 -9999 -9999 -9999 -9999 -9999 -9999 -9999 -9999 -9999 -9999 -9999 -9999 -9999 -9999 -9999 -9999 -9999 -9999 -9999 -9999 -9999 -9999 -9999 -9999 -9999 -9999 -9999 -9999 -9999 -9999 -9999 -9999 -9999 -9999 -9999 -9999 -9999 -9999 -9999 -9999
-9999 -9999 -9999 -9999 -9999 -9999 1140 1141 1142 1142 1143 1143 1144 1144 1145 1146 1148 1151 1160 1160 1152 1152 1151 1149 1150 1150 1163 1172 1169 1199 1220 1239 1252 1246 1225 1208 1228 1249 1275 1305 1323 1338 1315 1344 1353 1317 1297 1304 1318 1322 1343 1328 1297 1323 1316 1304 1319 1346 1303 1271 1264 1259 1268 1277 1298 1326 1350 1365 1387 1395 1408 -9999 -9999 -9999 -9999 -9999 -9999 1519 1519 1559 1605 1572 1556 1599 -9999 -9999 1613 1625 1633 -9999 -9999 -9999 -9999 -9999 -9999 -9999 -9999 -9999 -9999 -9999 -9999 -9999 -9999 -9999 -9999 -9999 -9999 -9999 -9999 -9999 -9999 -9999 -9999 -9999 -9999 -9999 -9999 -9999 -9999 -9999 -9999 -9999 -9999 -9999 -9999 -9999 -9999 -9999 -9999 -9999 -9999 -9999 -9999 -9999 -9999 -9999 -9999 -9999 -9999 -9999 -9999 -9999 -9999 -9999 -9999 -9999 -9999 -9999 -9999 -9999 -9999 -9999 -9999 -9999 -9999 -9999 -9999 -9999 -9999 -9999 -9999 -9999 -9999 -9999 -9999 -9999 -9999 -9999 -9999 -9999 -9999 -9999 -9999 -9999 -9999 -9999 -9999 -9999 -9999 -9999 -9999 -9999 -9999 -9999 -9999 -9999 -9999 -9999 -9999 -9999 -9999 -9999 -9999 -9999 -9999 -9999 -9999
-9999 -9999 -9999 -9999 -9999 -9999 1138 1141 1142 1142 1143 1143 1144 1144 1144 1145 1146 1150 1167 1169 1152 1153 1150 1150 1151 1150 1159 1186 1203 1217 1234 1239 1234 1203 1195 1209 1238 1271 1278 1307 1328 1340 1306 1313 1332 1334 1297 1292 1280 1315 1314 1295 1278 1289 1290 1285 1289 1288 1277 1246 1253 1277 1305 1311 1313 1305 1320 1340 1350 1358 -9999 -9999 -9999 -9999 -9999 -9999 -9999 -9999 1539 1634 1705 1617 1617 -9999 -9999 -9999 -9999 -9999 -9999 -9999 -9999 -9999 -9999 -9999 -9999 -9999 -9999 -9999 -9999 -9999 -9999 -9999 -9999 -9999 -9999 -9999 -9999 -9999 -9999 -9999 -9999 -9999 -9999 -9999 -9999 -9999 -9999 -9999 -9999 -9999 -9999 -9999 -9999 -9999 -9999 -9999 -9999 -9999 -9999 -9999 -9999 -9999 -9999 -9999 -9999 -9999 -9999 -9999 -9999 -9999 -9999 -9999 -9999 -9999 -9999 -9999 -9999 -9999 -9999 -9999 -9999 -9999 -9999 -9999 -9999 -9999 -9999 -9999 -9999 -9999 -9999 -9999 -9999 -9999 -9999 -9999 -9999 -9999 -9999 -9999 -9999 -9999 -9999 -9999 -9999 -9999 -9999 -9999 -9999 -9999 -9999 -9999 -9999 -9999 -9999 -9999 -9999 -9999 -9999 -9999 -9999 -9999 -9999 -9999 -9999 -9999 -9999
-9999 -9999 -9999 -9999 -9999 -9999 -9999 1140 1141 1142 1142 1147 1151 1144 1149 1144 1143 1147 1168 1175 1174 1163 1150 1150 1150 1152 1166 1184 1209 1222 1199 1212 1185 1182 1217 1235 1261 1271 1258 1283 1302 1327 1311 1292 1302 1304 1292 1292 1268 1276 1273 1278 1270 1266 1272 1272 1267 1254 1244 1253 1263 1276 1296 1340 1357 1364 1364 1404 1426 1426 -9999 -9999 -9999 -9999 -9999 -9999 -9999 -9999 -9999 -9999 -9999 -9999 -9999 -9999 -9999 -9999 -9999 -9999 -9999 -9999 -9999 -9999 -9999 -9999 -9999 -9999 -9999 -9999 -9999 -9999 -9999 -9999 -9999 -9999 -9999 -9999 -9999 -9999 -9999 -9999 -9999 -9999 -9999 -9999 -9999 -9999 -9999 -9999 -9999 -9999 -9999 -9999 -9999 -9999 -9999 -9999 -9999 -9999 -9999 -9999 -9999 -9999 -9999 -9999 -9999 -9999 -9999 -9999 -9999 -9999 -9999 -9999 -9999 -9999 -9999 -9999 -9999 -9999 -9999 -9999 -9999 -9999 -9999 -9999 -9999 -9999 -9999 -9999 -9999 -9999 -9999 -9999 -9999 -9999 -9999 -9999 -9999 -9999 -9999 -9999 -9999 -9999 -9999 -9999 -9999 -9999 -9999 -9999 -9999 -9999 -9999 -9999 -9999 -9999 -9999 -9999 -9999 -9999 -9999 -9999 -9999 -9999 -9999 -9999 -9999 -9999 -9999
-9999 -9999 -9999 -9999 -9999 -9999 -9999 1140 1140 1142 1142 1171 1247 1152 1179 1159 1156 1148 1160 1175 1186 1171 1167 1164 1152 1151 1152 1157 1184 1209 1167 1169 1176 1192 1211 1241 1262 1251 1248 1281 1302 1317 1310 1272 1266 1275 1285 1298 1275 1252 1252 1254 1265 1265 1289 1276 1248 1240 1251 1280 1279 1302 1294 1300 1323 1353 1393 1437 -9999 -9999 -9999 -9999 -9999 -9999 -9999 -9999 -9999 -9999 -9999 -9999 -9999 -9999 -9999 -9999 -9999 -9999 -9999 -9999 -9999 -9999 -9999 -9999 -9999 -9999 -9999 -9999 -9999 -9999 -9999 -9999 -9999 -9999 -9999 -9999 -9999 -9999 -9999 -9999 -9999 -9999 -9999 -9999 -9999 -9999 -9999 -9999 -9999 -9999 -9999 -9999 -9999 -9999 -9999 -9999 -9999 -9999 -9999 -9999 -9999 -9999 -9999 -9999 -9999 -9999 -9999 -9999 -9999 -9999 -9999 -9999 -9999 -9999 -9999 -9999 -9999 -9999 -9999 -9999 -9999 -9999 -9999 -9999 -9999 -9999 -9999 -9999 -9999 -9999 -9999 -9999 -9999 -9999 -9999 -9999 -9999 -9999 -9999 -9999 -9999 -9999 -9999 -9999 -9999 -9999 -9999 -9999 -9999 -9999 -9999 -9999 -9999 -9999 -9999 -9999 -9999 -9999 -9999 -9999 -9999 -9999 -9999 -9999 -9999 -9999 -9999 -9999 -9999
-9999 -9999 -9999 -9999 -9999 -9999 -9999 -9999 1141 1141 1141 1155 1233 1205 1200 1183 1168 1164 1168 1186 1196 1201 1208 1190 1178 1159 1153 1154 1158 1159 1157 1162 1180 1199 1234 1249 1236 1247 1238 1272 1295 1279 1288 1274 1245 1252 1272 1288 1276 1250 1244 1247 1254 1237 1245 1238 1232 1243 1250 1267 1282 1309 1321 1333 1341 1342 1385 -9999 -9999 -9999 -9999 -9999 -9999 -9999 -9999 -9999 -9999 -9999 -9999 -9999 -9999 -9999 -9999 -9999 -9999 -9999 -9999 -9999 -9999 -9999 -9999 -9999 -9999 -9999 -9999 -9999 -9999 -9999 -9999 -9999 -9999 -9999 -9999 -9999 -9999 -9999 -9999 -9999 -9999 -9999 -9999 -9999 -9999 -9999 -9999 -9999 -9999 -9999 -9999 -9999 -9999 -9999 -9999 -9999 -9999 -9999 -9999 -9999 -9999 -9999 -9999 -9999 -9999 -9999 -9999 -9999 -9999 -9999 -9999 -9999 -9999 -9999 -9999 -9999 -9999 -9999 -9999 -9999 -9999 -9999 -9999 -9999 -9999 -9999 -9999 -9999 -9999 -9999 -9999 -9999 -9999 -9999 -9999 -9999 -9999 -9999 -9999 -9999 -9999 -9999 -9999 -9999 -9999 -9999 -9999 -9999 -9999 -9999 -9999 -9999 -9999 -9999 -9999 -9999 -9999 -9999 -9999 -9999 -9999 -9999 -9999 -9999 -9999 -9999 -9999 -9999 -9999
-9999 -9999 -9999 -9999 -9999 -9999 -9999 -9999 1145 1141 1141 1141 1156 1183 1185 1162 1166 1182 1192 1185 1194 -9999 -9999 -9999 -9999 1172 1172 1156 1170 1170 1196 1179 1164 1208 1239 1226 1234 1238 1226 1252 1276 1255 1249 1244 1247 1263 1267 1245 1253 1227 1223 1226 1225 1228 1234 1262 1261 1275 1274 1289 1302 1304 1320 1351 1375 -9999 -9999 -9999 -9999 -9999 -9999 -9999 -9999 -9999 -9999 -9999 -9999 -9999 -9999 -9999 -9999 -9999 -9999 -9999 -9999 -9999 -9999 -9999 -9999 -9999 -9999 -9999 -9999 -9999 -9999 -9999 -9999 -9999 -9999 -9999 -9999 -9999 -9999 -9999 -9999 -9999 -9999 -9999 -9999 -9999 -9999 -9999 -9999 -9999 -9999 -9999 -9999 -9999 -9999 -9999 -9999 -9999 -9999 -9999 -9999 -9999 -9999 -9999 -9999 -9999 -9999 -9999 -9999 -9999 -9999 -9999 -9999 -9999 -9999 -9999 -9999 -9999 -9999 -9999 -9999 -9999 -9999 -9999 -9999 -9999 -9999 -9999 -9999 -9999 -9999 -9999 -9999 -9999 -9999 -9999 -9999 -9999 -9999 -9999 -9999 -9999 -9999 -9999 -9999 -9999 -9999 -9999 -9999 -9999 -9999 -9999 -9999 -9999 -9999 -9999 -9999 -9999 -9999 -9999 -9999 -9999 -9999 -9999 -9999 -9999 -9999 -9999 -9999 -9999 -9999 -9999 -9999
